407.955139 426.049896 408.777618 418.647491 
406.310150 426.049896 409.600098 416.180023 
407.132629 426.049896 410.422607 413.712555 
406.310150 426.872406 409.600098 414.535034 
406.310150 426.049896 410.422607 415.357544 
408.777618 426.872406 410.422607 417.002502 
410.422607 426.049896 409.600098 417.825012 
406.310150 425.227417 410.422607 415.357544 
403.842682 425.227417 409.600098 415.357544 
404.665161 426.049896 409.600098 415.357544 
403.020172 426.049896 409.600098 412.890076 
407.955139 426.049896 408.777618 416.180023 
407.132629 424.404938 409.600098 415.357544 
407.132629 424.404938 409.600098 409.600098 
405.487640 424.404938 408.777618 412.067566 
404.665161 425.227417 409.600098 409.600098 
403.020172 426.049896 411.245087 413.712555 
402.197693 425.227417 410.422607 412.890076 
403.842682 425.227417 409.600098 408.777618 
403.020172 425.227417 408.777618 407.132629 
403.842682 424.404938 407.955139 411.245087 
400.552704 423.582428 409.600098 412.067566 
401.375214 423.582428 411.245087 408.777618 
404.665161 424.404938 410.422607 412.890076 
403.020172 424.404938 409.600098 412.890076 
402.197693 423.582428 407.955139 412.890076 
400.552704 422.759949 408.777618 412.067566 
400.552704 422.759949 412.067566 410.422607 
403.020172 423.582428 412.067566 411.245087 
403.020172 423.582428 412.067566 412.890076 
402.197693 424.404938 412.067566 413.712555 
403.020172 425.227417 410.422607 412.067566 
403.020172 424.404938 410.422607 410.422607 
403.842682 425.227417 410.422607 412.067566 
404.665161 424.404938 409.600098 411.245087 
404.665161 425.227417 410.422607 413.712555 
404.665161 424.404938 411.245087 412.890076 
403.842682 423.582428 412.067566 411.245087 
400.552704 422.759949 410.422607 410.422607 
399.730225 422.759949 410.422607 410.422607 
400.552704 424.404938 409.600098 412.890076 
402.197693 423.582428 408.777618 412.890076 
403.020172 423.582428 407.955139 412.890076 
405.487640 425.227417 407.132629 410.422607 
403.842682 423.582428 408.777618 412.890076 
400.552704 423.582428 409.600098 411.245087 
402.197693 422.759949 407.955139 411.245087 
404.665161 421.937469 408.777618 412.890076 
403.842682 423.582428 407.955139 412.067566 
403.842682 423.582428 407.132629 410.422607 
405.487640 422.759949 407.955139 412.067566 
406.310150 421.114960 410.422607 412.890076 
405.487640 421.114960 409.600098 415.357544 
403.842682 421.114960 409.600098 415.357544 
404.665161 422.759949 408.777618 412.067566 
406.310150 423.582428 407.955139 408.777618 
405.487640 421.937469 408.777618 408.777618 
403.020172 421.937469 408.777618 409.600098 
403.020172 421.937469 408.777618 407.955139 
402.197693 421.114960 406.310150 407.132629 
404.665161 421.114960 407.132629 408.777618 
403.842682 421.937469 407.955139 408.777618 
403.020172 422.759949 407.955139 411.245087 
403.020172 422.759949 407.132629 411.245087 
403.020172 423.582428 408.777618 412.890076 
404.665161 422.759949 407.955139 410.422607 
403.020172 423.582428 407.955139 414.535034 
404.665161 423.582428 407.955139 411.245087 
406.310150 423.582428 409.600098 412.067566 
404.665161 422.759949 407.955139 412.890076 
403.020172 421.937469 409.600098 412.890076 
402.197693 422.759949 409.600098 414.535034 
402.197693 421.937469 408.777618 413.712555 
401.375214 421.937469 410.422607 417.002502 
403.020172 421.937469 410.422607 415.357544 
405.487640 421.937469 409.600098 415.357544 
405.487640 421.937469 408.777618 417.825012 
405.487640 421.937469 409.600098 412.890076 
406.310150 421.937469 409.600098 414.535034 
405.487640 421.114960 409.600098 417.002502 
405.487640 421.937469 409.600098 416.180023 
407.955139 422.759949 408.777618 417.002502 
406.310150 421.937469 407.955139 416.180023 
405.487640 422.759949 407.955139 412.067566 
405.487640 421.937469 406.310150 412.890076 
408.777618 421.937469 406.310150 410.422607 
407.132629 421.937469 407.955139 412.067566 
410.422607 421.937469 407.955139 412.067566 
412.890076 421.937469 409.600098 413.712555 
410.422607 422.759949 407.132629 412.890076 
410.422607 422.759949 407.132629 414.535034 
406.310150 421.937469 407.132629 413.712555 
402.197693 422.759949 406.310150 417.002502 
400.552704 422.759949 407.955139 417.825012 
404.665161 421.937469 409.600098 417.825012 
403.842682 421.937469 407.955139 417.825012 
406.310150 422.759949 407.955139 417.002502 
407.955139 423.582428 406.310150 417.825012 
407.132629 423.582428 407.132629 415.357544 
405.487640 423.582428 407.955139 415.357544 
407.955139 422.759949 408.777618 418.647491 
406.310150 422.759949 409.600098 417.825012 
407.955139 423.582428 408.777618 417.825012 
407.132629 423.582428 408.777618 414.535034 
406.310150 425.227417 409.600098 416.180023 
404.665161 424.404938 407.955139 412.067566 
402.197693 423.582428 408.777618 412.067566 
403.020172 423.582428 408.777618 412.890076 
403.842682 422.759949 408.777618 412.067566 
403.020172 423.582428 408.777618 420.292480 
404.665161 422.759949 408.777618 418.647491 
400.552704 422.759949 407.955139 412.890076 
403.020172 422.759949 407.955139 416.180023 
405.487640 422.759949 407.955139 414.535034 
405.487640 422.759949 408.777618 414.535034 
405.487640 423.582428 408.777618 415.357544 
404.665161 422.759949 408.777618 416.180023 
403.842682 422.759949 408.777618 416.180023 
402.197693 421.937469 408.777618 420.292480 
404.665161 422.759949 408.777618 418.647491 
405.487640 425.227417 407.955139 415.357544 
407.132629 425.227417 407.955139 414.535034 
405.487640 426.049896 407.132629 412.890076 
403.842682 424.404938 407.955139 411.245087 
404.665161 424.404938 407.955139 412.890076 
406.310150 424.404938 406.310150 415.357544 
405.487640 425.227417 407.132629 414.535034 
405.487640 426.049896 407.132629 410.422607 
404.665161 425.227417 407.955139 415.357544 
405.487640 424.404938 408.777618 413.712555 
403.842682 424.404938 408.777618 414.535034 
403.020172 425.227417 408.777618 414.535034 
402.197693 425.227417 408.777618 410.422607 
405.487640 424.404938 409.600098 415.357544 
403.842682 423.582428 408.777618 414.535034 
402.197693 424.404938 407.955139 415.357544 
404.665161 424.404938 407.132629 416.180023 
403.020172 425.227417 407.132629 413.712555 
403.020172 424.404938 407.132629 410.422607 
405.487640 423.582428 407.955139 411.245087 
400.552704 424.404938 408.777618 412.067566 
403.020172 424.404938 408.777618 412.890076 
401.375214 424.404938 407.955139 412.890076 
398.907745 426.049896 407.955139 407.132629 
401.375214 424.404938 407.955139 408.777618 
402.197693 424.404938 407.955139 410.422607 
402.197693 424.404938 407.955139 410.422607 
402.197693 424.404938 405.487640 412.067566 
403.020172 424.404938 406.310150 409.600098 
403.020172 423.582428 406.310150 412.890076 
403.020172 423.582428 406.310150 412.890076 
400.552704 423.582428 406.310150 409.600098 
401.375214 424.404938 405.487640 410.422607 
403.842682 425.227417 406.310150 412.890076 
403.020172 424.404938 407.132629 412.067566 
404.665161 425.227417 407.132629 414.535034 
403.020172 425.227417 407.132629 413.712555 
403.842682 425.227417 407.955139 416.180023 
405.487640 426.049896 406.310150 416.180023 
404.665161 425.227417 405.487640 415.357544 
403.842682 425.227417 405.487640 417.002502 
403.842682 426.049896 405.487640 414.535034 
403.842682 426.049896 406.310150 413.712555 
404.665161 426.872406 406.310150 414.535034 
401.375214 426.872406 406.310150 415.357544 
401.375214 426.872406 407.132629 416.180023 
404.665161 427.694885 407.955139 417.002502 
403.020172 428.517365 407.132629 416.180023 
406.310150 426.049896 407.132629 414.535034 
409.600098 426.872406 407.955139 419.470001 
407.132629 426.872406 407.132629 416.180023 
406.310150 426.049896 407.955139 414.535034 
405.487640 426.872406 408.777618 417.825012 
403.020172 426.872406 407.955139 417.002502 
403.842682 427.694885 408.777618 417.002502 
403.020172 428.517365 408.777618 413.712555 
402.197693 427.694885 407.955139 412.067566 
402.197693 426.872406 408.777618 413.712555 
401.375214 427.694885 408.777618 412.067566 
405.487640 427.694885 409.600098 415.357544 
404.665161 427.694885 409.600098 416.180023 
404.665161 427.694885 408.777618 413.712555 
407.132629 427.694885 409.600098 413.712555 
404.665161 429.339874 408.777618 413.712555 
407.132629 429.339874 410.422607 416.180023 
407.132629 428.517365 411.245087 417.825012 
405.487640 427.694885 410.422607 418.647491 
405.487640 428.517365 410.422607 415.357544 
406.310150 428.517365 410.422607 414.535034 
406.310150 428.517365 410.422607 412.890076 
405.487640 428.517365 410.422607 412.067566 
405.487640 428.517365 409.600098 411.245087 
405.487640 429.339874 410.422607 412.890076 
407.955139 428.517365 411.245087 412.890076 
406.310150 427.694885 411.245087 417.002502 
404.665161 427.694885 411.245087 417.002502 
403.842682 429.339874 410.422607 413.712555 
403.842682 427.694885 411.245087 417.002502 
404.665161 427.694885 411.245087 412.067566 
402.197693 427.694885 410.422607 412.890076 
405.487640 426.872406 411.245087 414.535034 
407.132629 427.694885 411.245087 414.535034 
407.132629 428.517365 412.067566 412.890076 
406.310150 426.872406 412.890076 415.357544 
407.955139 427.694885 412.067566 417.002502 
407.132629 427.694885 412.890076 417.002502 
408.777618 427.694885 413.712555 420.292480 
410.422607 427.694885 413.712555 419.470001 
409.600098 427.694885 413.712555 419.470001 
411.245087 427.694885 412.890076 419.470001 
410.422607 427.694885 412.890076 417.825012 
410.422607 427.694885 412.890076 419.470001 
410.422607 426.872406 413.712555 419.470001 
410.422607 426.872406 412.890076 417.825012 
411.245087 426.872406 412.067566 419.470001 
412.890076 427.694885 412.890076 417.825012 
410.422607 426.049896 412.890076 414.535034 
409.600098 425.227417 411.245087 415.357544 
409.600098 426.049896 411.245087 416.180023 
406.310150 426.872406 412.067566 417.825012 
408.777618 426.872406 412.067566 417.002502 
407.955139 426.872406 412.067566 417.825012 
408.777618 426.049896 411.245087 412.890076 
411.245087 426.872406 411.245087 417.002502 
410.422607 426.872406 412.890076 418.647491 
409.600098 426.872406 412.890076 419.470001 
409.600098 426.049896 411.245087 418.647491 
410.422607 426.049896 411.245087 417.825012 
413.712555 427.694885 412.067566 421.114960 
414.535034 426.872406 412.067566 421.114960 
412.067566 427.694885 412.067566 418.647491 
410.422607 426.872406 412.067566 418.647491 
410.422607 426.872406 411.245087 417.825012 
410.422607 427.694885 412.067566 420.292480 
411.245087 426.872406 410.422607 416.180023 
411.245087 426.872406 409.600098 418.647491 
410.422607 426.872406 410.422607 417.825012 
409.600098 425.227417 410.422607 417.002502 
406.310150 424.404938 409.600098 417.002502 
407.132629 424.404938 409.600098 415.357544 
406.310150 426.049896 410.422607 416.180023 
408.777618 426.872406 410.422607 417.002502 
409.600098 426.049896 411.245087 417.825012 
407.132629 426.872406 412.067566 415.357544 
404.665161 426.049896 411.245087 416.180023 
407.132629 426.049896 410.422607 419.470001 
410.422607 426.872406 410.422607 419.470001 
410.422607 426.049896 409.600098 415.357544 
411.245087 426.049896 412.890076 417.002502 
407.955139 424.404938 413.712555 417.002502 
405.487640 425.227417 412.067566 413.712555 
406.310150 425.227417 411.245087 414.535034 
406.310150 425.227417 410.422607 412.890076 
407.132629 426.049896 411.245087 416.180023 
407.132629 426.049896 412.067566 413.712555 
408.777618 426.049896 412.067566 417.825012 
408.777618 426.872406 411.245087 412.067566 
407.955139 425.227417 412.067566 417.002502 
405.487640 423.582428 412.067566 415.357544 
405.487640 424.404938 411.245087 417.825012 
407.132629 426.049896 410.422607 414.535034 
406.310150 424.404938 409.600098 414.535034 
404.665161 423.582428 409.600098 415.357544 
405.487640 423.582428 411.245087 414.535034 
404.665161 422.759949 412.067566 415.357544 
404.665161 423.582428 411.245087 416.180023 
403.020172 423.582428 412.067566 417.002502 
399.730225 422.759949 411.245087 416.180023 
402.197693 422.759949 411.245087 415.357544 
403.020172 422.759949 411.245087 411.245087 
403.020172 424.404938 411.245087 409.600098 
403.842682 423.582428 410.422607 412.067566 
403.020172 421.937469 412.067566 418.647491 
400.552704 420.292480 412.067566 416.180023 
400.552704 421.114960 411.245087 417.825012 
401.375214 421.937469 410.422607 416.180023 
403.842682 422.759949 410.422607 415.357544 
403.020172 420.292480 412.067566 417.825012 
402.197693 415.357544 412.067566 415.357544 
403.842682 414.535034 411.245087 416.180023 
404.665161 417.825012 411.245087 417.002502 
406.310150 421.937469 409.600098 419.470001 
403.842682 422.759949 410.422607 420.292480 
403.020172 422.759949 411.245087 418.647491 
402.197693 421.114960 411.245087 416.180023 
403.020172 421.937469 411.245087 415.357544 
404.665161 423.582428 410.422607 415.357544 
404.665161 423.582428 410.422607 415.357544 
404.665161 421.937469 409.600098 414.535034 
407.955139 423.582428 410.422607 414.535034 
407.955139 424.404938 410.422607 410.422607 
409.600098 423.582428 410.422607 411.245087 
407.955139 424.404938 411.245087 410.422607 
406.310150 421.937469 411.245087 412.890076 
404.665161 421.114960 412.067566 421.114960 
401.375214 419.470001 412.890076 419.470001 
401.375214 420.292480 412.067566 417.825012 
396.440277 420.292480 412.067566 417.002502 
400.552704 421.114960 411.245087 416.180023 
403.020172 421.114960 411.245087 421.114960 
400.552704 420.292480 412.067566 417.002502 
400.552704 421.114960 411.245087 415.357544 
400.552704 421.114960 410.422607 415.357544 
400.552704 421.114960 412.067566 417.002502 
402.197693 421.937469 409.600098 416.180023 
402.197693 421.114960 410.422607 417.002502 
402.197693 421.114960 411.245087 416.180023 
402.197693 420.292480 411.245087 417.002502 
398.085236 419.470001 411.245087 417.002502 
398.907745 418.647491 412.067566 417.825012 
400.552704 418.647491 412.067566 419.470001 
402.197693 419.470001 411.245087 420.292480 
404.665161 419.470001 412.067566 415.357544 
403.020172 420.292480 413.712555 417.825012 
403.020172 419.470001 412.067566 416.180023 
403.842682 421.114960 411.245087 412.067566 
402.197693 420.292480 411.245087 421.114960 
403.842682 421.114960 409.600098 415.357544 
403.842682 421.937469 410.422607 413.712555 
403.020172 421.114960 411.245087 414.535034 
404.665161 423.582428 409.600098 414.535034 
401.375214 422.759949 410.422607 416.180023 
403.842682 422.759949 411.245087 421.937469 
404.665161 422.759949 411.245087 417.825012 
404.665161 422.759949 410.422607 415.357544 
405.487640 422.759949 410.422607 417.002502 
404.665161 422.759949 410.422607 413.712555 
406.310150 423.582428 410.422607 418.647491 
408.777618 423.582428 410.422607 417.825012 
405.487640 422.759949 409.600098 416.180023 
403.842682 421.937469 410.422607 417.002502 
403.842682 422.759949 409.600098 413.712555 
406.310150 423.582428 409.600098 414.535034 
405.487640 423.582428 410.422607 413.712555 
403.842682 421.937469 411.245087 417.002502 
403.842682 421.114960 409.600098 417.002502 
404.665161 420.292480 409.600098 415.357544 
406.310150 420.292480 409.600098 418.647491 
404.665161 420.292480 410.422607 414.535034 
402.197693 419.470001 411.245087 417.002502 
405.487640 420.292480 410.422607 422.759949 
405.487640 421.114960 408.777618 416.180023 
406.310150 421.114960 409.600098 416.180023 
406.310150 421.114960 408.777618 411.245087 
405.487640 420.292480 408.777618 415.357544 
407.132629 419.470001 409.600098 417.825012 
403.020172 419.470001 408.777618 407.955139 
403.020172 419.470001 408.777618 409.600098 
406.310150 420.292480 408.777618 409.600098 
409.600098 420.292480 409.600098 413.712555 
412.067566 419.470001 409.600098 416.180023 
409.600098 420.292480 409.600098 416.180023 
408.777618 421.114960 408.777618 411.245087 
407.955139 421.114960 407.955139 412.067566 
408.777618 420.292480 407.955139 414.535034 
407.955139 420.292480 407.955139 409.600098 
404.665161 421.114960 408.777618 411.245087 
401.375214 420.292480 410.422607 418.647491 
403.842682 420.292480 409.600098 413.712555 
401.375214 421.114960 409.600098 414.535034 
404.665161 421.937469 409.600098 414.535034 
400.552704 421.114960 409.600098 411.245087 
403.020172 422.759949 409.600098 415.357544 
404.665161 422.759949 408.777618 414.535034 
403.020172 424.404938 408.777618 413.712555 
405.487640 426.049896 408.777618 414.535034 
404.665161 424.404938 408.777618 412.890076 
407.955139 425.227417 410.422607 413.712555 
410.422607 425.227417 409.600098 413.712555 
407.955139 424.404938 410.422607 414.535034 
407.132629 424.404938 411.245087 417.825012 
403.842682 423.582428 409.600098 414.535034 
404.665161 423.582428 410.422607 415.357544 
405.487640 424.404938 410.422607 412.890076 
405.487640 424.404938 410.422607 421.114960 
406.310150 423.582428 411.245087 419.470001 
406.310150 423.582428 412.067566 419.470001 
403.020172 423.582428 411.245087 414.535034 
402.197693 423.582428 410.422607 415.357544 
401.375214 423.582428 409.600098 416.180023 
403.020172 424.404938 410.422607 417.002502 
403.842682 426.049896 409.600098 416.180023 
404.665161 424.404938 409.600098 413.712555 
403.842682 423.582428 410.422607 414.535034 
403.842682 421.114960 411.245087 413.712555 
405.487640 421.114960 411.245087 414.535034 
403.020172 421.937469 412.067566 413.712555 
405.487640 422.759949 412.067566 417.825012 
404.665161 423.582428 410.422607 416.180023 
403.842682 423.582428 411.245087 415.357544 
404.665161 423.582428 410.422607 415.357544 
403.842682 423.582428 410.422607 418.647491 
403.020172 422.759949 410.422607 418.647491 
400.552704 421.937469 410.422607 411.245087 
401.375214 424.404938 409.600098 412.067566 
402.197693 424.404938 408.777618 407.955139 
402.197693 424.404938 407.955139 411.245087 
399.730225 423.582428 408.777618 412.890076 
403.020172 424.404938 408.777618 412.067566 
403.020172 425.227417 410.422607 417.825012 
407.132629 425.227417 410.422607 420.292480 
407.955139 424.404938 409.600098 420.292480 
403.842682 422.759949 409.600098 420.292480 
403.842682 421.114960 410.422607 419.470001 
407.955139 421.937469 409.600098 419.470001 
404.665161 421.937469 410.422607 421.114960 
403.842682 421.937469 410.422607 418.647491 
403.842682 421.114960 411.245087 416.180023 
404.665161 421.937469 411.245087 416.180023 
407.132629 422.759949 411.245087 417.002502 
408.777618 423.582428 411.245087 418.647491 
405.487640 423.582428 410.422607 416.180023 
401.375214 423.582428 408.777618 411.245087 
403.842682 424.404938 407.955139 412.067566 
403.842682 425.227417 407.955139 411.245087 
406.310150 426.872406 408.777618 412.067566 
404.665161 425.227417 408.777618 412.067566 
403.842682 424.404938 408.777618 410.422607 
403.842682 425.227417 409.600098 413.712555 
406.310150 425.227417 410.422607 417.825012 
407.955139 425.227417 409.600098 417.002502 
406.310150 424.404938 408.777618 417.002502 
406.310150 424.404938 409.600098 417.825012 
407.132629 425.227417 407.955139 415.357544 
406.310150 425.227417 407.955139 419.470001 
407.132629 425.227417 408.777618 417.825012 
406.310150 424.404938 407.132629 413.712555 
403.020172 423.582428 407.955139 414.535034 
404.665161 424.404938 408.777618 412.890076 
401.375214 422.759949 407.955139 412.890076 
404.665161 421.937469 408.777618 413.712555 
406.310150 422.759949 408.777618 415.357544 
405.487640 423.582428 408.777618 414.535034 
407.132629 423.582428 408.777618 413.712555 
406.310150 423.582428 407.955139 412.890076 
404.665161 424.404938 408.777618 409.600098 
405.487640 424.404938 407.955139 410.422607 
406.310150 425.227417 407.955139 411.245087 
405.487640 426.049896 407.955139 412.067566 
403.842682 424.404938 408.777618 411.245087 
403.842682 425.227417 407.132629 413.712555 
399.730225 425.227417 406.310150 411.245087 
403.020172 426.049896 407.955139 414.535034 
406.310150 427.694885 407.132629 412.067566 
404.665161 427.694885 408.777618 412.890076 
405.487640 427.694885 408.777618 416.180023 
404.665161 426.049896 407.955139 416.180023 
403.020172 426.872406 407.955139 414.535034 
400.552704 426.049896 407.955139 410.422607 
400.552704 424.404938 407.955139 412.890076 
401.375214 424.404938 407.132629 409.600098 
400.552704 424.404938 407.132629 413.712555 
402.197693 424.404938 406.310150 408.777618 
403.020172 425.227417 406.310150 408.777618 
401.375214 423.582428 405.487640 407.955139 
403.020172 423.582428 405.487640 407.955139 
401.375214 424.404938 407.132629 412.067566 
401.375214 424.404938 405.487640 407.132629 
398.907745 423.582428 405.487640 403.842682 
402.197693 422.759949 406.310150 405.487640 
401.375214 423.582428 405.487640 405.487640 
399.730225 423.582428 407.132629 409.600098 
402.197693 424.404938 407.955139 411.245087 
403.020172 424.404938 407.955139 410.422607 
401.375214 423.582428 407.955139 407.955139 
397.262756 423.582428 407.132629 406.310150 
394.795288 425.227417 406.310150 409.600098 
395.617767 425.227417 406.310150 404.665161 
393.150299 425.227417 405.487640 405.487640 
395.617767 425.227417 405.487640 407.132629 
394.795288 425.227417 404.665161 403.842682 
391.505310 426.049896 403.842682 404.665161 
394.795288 426.049896 404.665161 402.197693 
397.262756 426.872406 404.665161 404.665161 
398.907745 426.872406 404.665161 406.310150 
402.197693 427.694885 406.310150 407.955139 
403.842682 426.872406 407.132629 411.245087 
403.020172 425.227417 407.955139 411.245087 
402.197693 424.404938 407.955139 408.777618 
403.842682 424.404938 407.132629 408.777618 
404.665161 423.582428 407.132629 406.310150 
401.375214 424.404938 407.955139 406.310150 
398.085236 422.759949 408.777618 406.310150 
400.552704 422.759949 408.777618 412.067566 
398.085236 423.582428 408.777618 412.890076 
399.730225 424.404938 407.955139 409.600098 
396.440277 423.582428 407.132629 408.777618 
393.972778 425.227417 407.132629 407.955139 
397.262756 425.227417 407.132629 405.487640 
393.972778 423.582428 407.132629 407.955139 
397.262756 423.582428 407.955139 407.132629 
398.907745 424.404938 408.777618 407.132629 
400.552704 423.582428 407.955139 415.357544 
403.020172 424.404938 407.955139 414.535034 
401.375214 425.227417 407.132629 412.067566 
401.375214 423.582428 407.132629 412.067566 
402.197693 423.582428 407.132629 414.535034 
401.375214 422.759949 407.955139 410.422607 
397.262756 422.759949 407.132629 407.955139 
398.085236 423.582428 407.132629 408.777618 
399.730225 423.582428 407.132629 406.310150 
400.552704 422.759949 407.132629 413.712555 
399.730225 422.759949 407.132629 409.600098 
397.262756 422.759949 406.310150 404.665161 
398.907745 422.759949 406.310150 410.422607 
398.085236 422.759949 406.310150 406.310150 
398.085236 422.759949 407.132629 407.955139 
398.907745 422.759949 407.955139 406.310150 
398.907745 421.937469 407.955139 406.310150 
400.552704 421.114960 408.777618 407.132629 
405.487640 420.292480 409.600098 407.955139 
407.132629 421.937469 408.777618 407.955139 
408.777618 421.114960 409.600098 409.600098 
412.890076 421.114960 408.777618 411.245087 
412.067566 421.114960 407.955139 410.422607 
408.777618 420.292480 407.955139 414.535034 
403.842682 418.647491 409.600098 414.535034 
399.730225 418.647491 408.777618 415.357544 
399.730225 418.647491 410.422607 414.535034 
400.552704 419.470001 409.600098 415.357544 
398.085236 419.470001 409.600098 415.357544 
401.375214 418.647491 410.422607 412.890076 
400.552704 420.292480 410.422607 413.712555 
400.552704 419.470001 410.422607 412.067566 
403.020172 418.647491 410.422607 415.357544 
398.085236 418.647491 410.422607 412.890076 
398.907745 417.825012 410.422607 412.067566 
401.375214 418.647491 410.422607 412.890076 
399.730225 418.647491 411.245087 413.712555 
398.085236 418.647491 412.067566 413.712555 
399.730225 418.647491 412.067566 414.535034 
396.440277 418.647491 411.245087 413.712555 
396.440277 419.470001 411.245087 411.245087 
398.085236 418.647491 411.245087 412.067566 
398.085236 419.470001 411.245087 409.600098 
398.907745 421.114960 411.245087 412.890076 
400.552704 420.292480 411.245087 412.890076 
401.375214 419.470001 411.245087 410.422607 
401.375214 420.292480 411.245087 413.712555 
402.197693 420.292480 410.422607 412.890076 
401.375214 420.292480 411.245087 411.245087 
401.375214 420.292480 412.067566 409.600098 
403.020172 418.647491 412.067566 412.067566 
402.197693 418.647491 412.067566 413.712555 
403.020172 419.470001 411.245087 416.180023 
399.730225 418.647491 412.067566 413.712555 
400.552704 417.825012 411.245087 411.245087 
403.020172 418.647491 412.067566 415.357544 
402.197693 418.647491 412.067566 415.357544 
404.665161 419.470001 412.890076 409.600098 
403.020172 419.470001 413.712555 413.712555 
399.730225 417.825012 412.890076 412.067566 
402.197693 418.647491 412.890076 413.712555 
402.197693 417.825012 412.067566 414.535034 
402.197693 417.002502 412.890076 413.712555 
400.552704 416.180023 412.890076 412.067566 
403.020172 417.002502 411.245087 412.067566 
403.020172 417.825012 411.245087 411.245087 
403.842682 417.825012 412.067566 412.067566 
405.487640 417.825012 412.067566 414.535034 
407.132629 418.647491 412.890076 415.357544 
406.310150 418.647491 412.890076 417.002502 
406.310150 418.647491 412.890076 417.002502 
407.955139 419.470001 413.712555 419.470001 
407.132629 419.470001 412.890076 418.647491 
409.600098 419.470001 412.067566 417.002502 
407.132629 420.292480 412.890076 417.002502 
403.842682 420.292480 412.067566 416.180023 
401.375214 419.470001 410.422607 412.890076 
403.842682 420.292480 411.245087 411.245087 
407.132629 420.292480 411.245087 412.067566 
404.665161 421.114960 410.422607 412.067566 
406.310150 421.937469 411.245087 415.357544 
406.310150 421.937469 411.245087 415.357544 
404.665161 422.759949 411.245087 412.890076 
405.487640 421.937469 410.422607 413.712555 
404.665161 422.759949 412.067566 413.712555 
403.842682 422.759949 411.245087 412.067566 
404.665161 422.759949 411.245087 414.535034 
407.132629 423.582428 411.245087 414.535034 
406.310150 423.582428 410.422607 413.712555 
403.020172 423.582428 410.422607 417.002502 
404.665161 424.404938 412.890076 414.535034 
405.487640 423.582428 412.067566 414.535034 
406.310150 423.582428 410.422607 413.712555 
406.310150 422.759949 411.245087 417.002502 
405.487640 423.582428 410.422607 417.002502 
406.310150 425.227417 412.067566 417.825012 
406.310150 426.049896 412.067566 417.825012 
406.310150 425.227417 411.245087 416.180023 
406.310150 426.049896 411.245087 418.647491 
405.487640 426.872406 410.422607 414.535034 
406.310150 426.872406 410.422607 417.825012 
407.132629 427.694885 410.422607 417.002502 
407.132629 426.872406 409.600098 414.535034 
405.487640 427.694885 408.777618 416.180023 
403.842682 428.517365 407.955139 413.712555 
406.310150 428.517365 407.955139 414.535034 
404.665161 428.517365 408.777618 416.180023 
401.375214 428.517365 407.955139 414.535034 
