815.910278 852.099792 817.555237 837.294983 
812.620300 852.099792 819.200195 832.360046 
814.265259 852.099792 820.845215 827.425110 
812.620300 853.744812 819.200195 829.070068 
812.620300 852.099792 820.845215 830.715088 
817.555237 853.744812 820.845215 834.005005 
820.845215 852.099792 819.200195 835.650024 
812.620300 850.454834 820.845215 830.715088 
807.685364 850.454834 819.200195 830.715088 
809.330322 852.099792 819.200195 830.715088 
806.040344 852.099792 819.200195 825.780151 
815.910278 852.099792 817.555237 832.360046 
814.265259 848.809875 819.200195 830.715088 
814.265259 848.809875 819.200195 819.200195 
810.975281 848.809875 817.555237 824.135132 
809.330322 850.454834 819.200195 819.200195 
806.040344 852.099792 822.490173 827.425110 
804.395386 850.454834 820.845215 825.780151 
807.685364 850.454834 819.200195 817.555237 
806.040344 850.454834 817.555237 814.265259 
807.685364 848.809875 815.910278 822.490173 
801.105408 847.164856 819.200195 824.135132 
802.750427 847.164856 822.490173 817.555237 
809.330322 848.809875 820.845215 825.780151 
806.040344 848.809875 819.200195 825.780151 
804.395386 847.164856 815.910278 825.780151 
801.105408 845.519897 817.555237 824.135132 
801.105408 845.519897 824.135132 820.845215 
806.040344 847.164856 824.135132 822.490173 
806.040344 847.164856 824.135132 825.780151 
804.395386 848.809875 824.135132 827.425110 
806.040344 850.454834 820.845215 824.135132 
806.040344 848.809875 820.845215 820.845215 
807.685364 850.454834 820.845215 824.135132 
809.330322 848.809875 819.200195 822.490173 
809.330322 850.454834 820.845215 827.425110 
809.330322 848.809875 822.490173 825.780151 
807.685364 847.164856 824.135132 822.490173 
801.105408 845.519897 820.845215 820.845215 
799.460449 845.519897 820.845215 820.845215 
801.105408 848.809875 819.200195 825.780151 
804.395386 847.164856 817.555237 825.780151 
806.040344 847.164856 815.910278 825.780151 
810.975281 850.454834 814.265259 820.845215 
807.685364 847.164856 817.555237 825.780151 
801.105408 847.164856 819.200195 822.490173 
804.395386 845.519897 815.910278 822.490173 
809.330322 843.874939 817.555237 825.780151 
807.685364 847.164856 815.910278 824.135132 
807.685364 847.164856 814.265259 820.845215 
810.975281 845.519897 815.910278 824.135132 
812.620300 842.229919 820.845215 825.780151 
810.975281 842.229919 819.200195 830.715088 
807.685364 842.229919 819.200195 830.715088 
809.330322 845.519897 817.555237 824.135132 
812.620300 847.164856 815.910278 817.555237 
810.975281 843.874939 817.555237 817.555237 
806.040344 843.874939 817.555237 819.200195 
806.040344 843.874939 817.555237 815.910278 
804.395386 842.229919 812.620300 814.265259 
809.330322 842.229919 814.265259 817.555237 
807.685364 843.874939 815.910278 817.555237 
806.040344 845.519897 815.910278 822.490173 
806.040344 845.519897 814.265259 822.490173 
806.040344 847.164856 817.555237 825.780151 
809.330322 845.519897 815.910278 820.845215 
806.040344 847.164856 815.910278 829.070068 
809.330322 847.164856 815.910278 822.490173 
812.620300 847.164856 819.200195 824.135132 
809.330322 845.519897 815.910278 825.780151 
806.040344 843.874939 819.200195 825.780151 
804.395386 845.519897 819.200195 829.070068 
804.395386 843.874939 817.555237 827.425110 
802.750427 843.874939 820.845215 834.005005 
806.040344 843.874939 820.845215 830.715088 
810.975281 843.874939 819.200195 830.715088 
810.975281 843.874939 817.555237 835.650024 
810.975281 843.874939 819.200195 825.780151 
812.620300 843.874939 819.200195 829.070068 
810.975281 842.229919 819.200195 834.005005 
810.975281 843.874939 819.200195 832.360046 
815.910278 845.519897 817.555237 834.005005 
812.620300 843.874939 815.910278 832.360046 
810.975281 845.519897 815.910278 824.135132 
810.975281 843.874939 812.620300 825.780151 
817.555237 843.874939 812.620300 820.845215 
814.265259 843.874939 815.910278 824.135132 
820.845215 843.874939 815.910278 824.135132 
825.780151 843.874939 819.200195 827.425110 
820.845215 845.519897 814.265259 825.780151 
820.845215 845.519897 814.265259 829.070068 
812.620300 843.874939 814.265259 827.425110 
804.395386 845.519897 812.620300 834.005005 
801.105408 845.519897 815.910278 835.650024 
809.330322 843.874939 819.200195 835.650024 
807.685364 843.874939 815.910278 835.650024 
812.620300 845.519897 815.910278 834.005005 
815.910278 847.164856 812.620300 835.650024 
814.265259 847.164856 814.265259 830.715088 
810.975281 847.164856 815.910278 830.715088 
815.910278 845.519897 817.555237 837.294983 
812.620300 845.519897 819.200195 835.650024 
815.910278 847.164856 817.555237 835.650024 
814.265259 847.164856 817.555237 829.070068 
812.620300 850.454834 819.200195 832.360046 
809.330322 848.809875 815.910278 824.135132 
804.395386 847.164856 817.555237 824.135132 
806.040344 847.164856 817.555237 825.780151 
807.685364 845.519897 817.555237 824.135132 
806.040344 847.164856 817.555237 840.584961 
809.330322 845.519897 817.555237 837.294983 
801.105408 845.519897 815.910278 825.780151 
806.040344 845.519897 815.910278 832.360046 
810.975281 845.519897 815.910278 829.070068 
810.975281 845.519897 817.555237 829.070068 
810.975281 847.164856 817.555237 830.715088 
809.330322 845.519897 817.555237 832.360046 
807.685364 845.519897 817.555237 832.360046 
804.395386 843.874939 817.555237 840.584961 
809.330322 845.519897 817.555237 837.294983 
810.975281 850.454834 815.910278 830.715088 
814.265259 850.454834 815.910278 829.070068 
810.975281 852.099792 814.265259 825.780151 
807.685364 848.809875 815.910278 822.490173 
809.330322 848.809875 815.910278 825.780151 
812.620300 848.809875 812.620300 830.715088 
810.975281 850.454834 814.265259 829.070068 
810.975281 852.099792 814.265259 820.845215 
809.330322 850.454834 815.910278 830.715088 
810.975281 848.809875 817.555237 827.425110 
807.685364 848.809875 817.555237 829.070068 
806.040344 850.454834 817.555237 829.070068 
804.395386 850.454834 817.555237 820.845215 
810.975281 848.809875 819.200195 830.715088 
807.685364 847.164856 817.555237 829.070068 
804.395386 848.809875 815.910278 830.715088 
809.330322 848.809875 814.265259 832.360046 
806.040344 850.454834 814.265259 827.425110 
806.040344 848.809875 814.265259 820.845215 
810.975281 847.164856 815.910278 822.490173 
801.105408 848.809875 817.555237 824.135132 
806.040344 848.809875 817.555237 825.780151 
802.750427 848.809875 815.910278 825.780151 
797.815491 852.099792 815.910278 814.265259 
802.750427 848.809875 815.910278 817.555237 
804.395386 848.809875 815.910278 820.845215 
804.395386 848.809875 815.910278 820.845215 
804.395386 848.809875 810.975281 824.135132 
806.040344 848.809875 812.620300 819.200195 
806.040344 847.164856 812.620300 825.780151 
806.040344 847.164856 812.620300 825.780151 
801.105408 847.164856 812.620300 819.200195 
802.750427 848.809875 810.975281 820.845215 
807.685364 850.454834 812.620300 825.780151 
806.040344 848.809875 814.265259 824.135132 
809.330322 850.454834 814.265259 829.070068 
806.040344 850.454834 814.265259 827.425110 
807.685364 850.454834 815.910278 832.360046 
810.975281 852.099792 812.620300 832.360046 
809.330322 850.454834 810.975281 830.715088 
807.685364 850.454834 810.975281 834.005005 
807.685364 852.099792 810.975281 829.070068 
807.685364 852.099792 812.620300 827.425110 
809.330322 853.744812 812.620300 829.070068 
802.750427 853.744812 812.620300 830.715088 
802.750427 853.744812 814.265259 832.360046 
809.330322 855.389771 815.910278 834.005005 
806.040344 857.034729 814.265259 832.360046 
812.620300 852.099792 814.265259 829.070068 
819.200195 853.744812 815.910278 838.940002 
814.265259 853.744812 814.265259 832.360046 
812.620300 852.099792 815.910278 829.070068 
810.975281 853.744812 817.555237 835.650024 
806.040344 853.744812 815.910278 834.005005 
807.685364 855.389771 817.555237 834.005005 
806.040344 857.034729 817.555237 827.425110 
804.395386 855.389771 815.910278 824.135132 
804.395386 853.744812 817.555237 827.425110 
802.750427 855.389771 817.555237 824.135132 
810.975281 855.389771 819.200195 830.715088 
809.330322 855.389771 819.200195 832.360046 
809.330322 855.389771 817.555237 827.425110 
814.265259 855.389771 819.200195 827.425110 
809.330322 858.679749 817.555237 827.425110 
814.265259 858.679749 820.845215 832.360046 
814.265259 857.034729 822.490173 835.650024 
810.975281 855.389771 820.845215 837.294983 
810.975281 857.034729 820.845215 830.715088 
812.620300 857.034729 820.845215 829.070068 
812.620300 857.034729 820.845215 825.780151 
810.975281 857.034729 820.845215 824.135132 
810.975281 857.034729 819.200195 822.490173 
810.975281 858.679749 820.845215 825.780151 
815.910278 857.034729 822.490173 825.780151 
812.620300 855.389771 822.490173 834.005005 
809.330322 855.389771 822.490173 834.005005 
807.685364 858.679749 820.845215 827.425110 
807.685364 855.389771 822.490173 834.005005 
809.330322 855.389771 822.490173 824.135132 
804.395386 855.389771 820.845215 825.780151 
810.975281 853.744812 822.490173 829.070068 
814.265259 855.389771 822.490173 829.070068 
814.265259 857.034729 824.135132 825.780151 
812.620300 853.744812 825.780151 830.715088 
815.910278 855.389771 824.135132 834.005005 
814.265259 855.389771 825.780151 834.005005 
817.555237 855.389771 827.425110 840.584961 
820.845215 855.389771 827.425110 838.940002 
819.200195 855.389771 827.425110 838.940002 
822.490173 855.389771 825.780151 838.940002 
820.845215 855.389771 825.780151 835.650024 
820.845215 855.389771 825.780151 838.940002 
820.845215 853.744812 827.425110 838.940002 
820.845215 853.744812 825.780151 835.650024 
822.490173 853.744812 824.135132 838.940002 
825.780151 855.389771 825.780151 835.650024 
820.845215 852.099792 825.780151 829.070068 
819.200195 850.454834 822.490173 830.715088 
819.200195 852.099792 822.490173 832.360046 
812.620300 853.744812 824.135132 835.650024 
817.555237 853.744812 824.135132 834.005005 
815.910278 853.744812 824.135132 835.650024 
817.555237 852.099792 822.490173 825.780151 
822.490173 853.744812 822.490173 834.005005 
820.845215 853.744812 825.780151 837.294983 
819.200195 853.744812 825.780151 838.940002 
819.200195 852.099792 822.490173 837.294983 
820.845215 852.099792 822.490173 835.650024 
827.425110 855.389771 824.135132 842.229919 
829.070068 853.744812 824.135132 842.229919 
824.135132 855.389771 824.135132 837.294983 
820.845215 853.744812 824.135132 837.294983 
820.845215 853.744812 822.490173 835.650024 
820.845215 855.389771 824.135132 840.584961 
822.490173 853.744812 820.845215 832.360046 
822.490173 853.744812 819.200195 837.294983 
820.845215 853.744812 820.845215 835.650024 
819.200195 850.454834 820.845215 834.005005 
812.620300 848.809875 819.200195 834.005005 
814.265259 848.809875 819.200195 830.715088 
812.620300 852.099792 820.845215 832.360046 
817.555237 853.744812 820.845215 834.005005 
819.200195 852.099792 822.490173 835.650024 
814.265259 853.744812 824.135132 830.715088 
809.330322 852.099792 822.490173 832.360046 
814.265259 852.099792 820.845215 838.940002 
820.845215 853.744812 820.845215 838.940002 
820.845215 852.099792 819.200195 830.715088 
822.490173 852.099792 825.780151 834.005005 
815.910278 848.809875 827.425110 834.005005 
810.975281 850.454834 824.135132 827.425110 
812.620300 850.454834 822.490173 829.070068 
812.620300 850.454834 820.845215 825.780151 
814.265259 852.099792 822.490173 832.360046 
814.265259 852.099792 824.135132 827.425110 
817.555237 852.099792 824.135132 835.650024 
817.555237 853.744812 822.490173 824.135132 
815.910278 850.454834 824.135132 834.005005 
810.975281 847.164856 824.135132 830.715088 
810.975281 848.809875 822.490173 835.650024 
814.265259 852.099792 820.845215 829.070068 
812.620300 848.809875 819.200195 829.070068 
809.330322 847.164856 819.200195 830.715088 
810.975281 847.164856 822.490173 829.070068 
809.330322 845.519897 824.135132 830.715088 
809.330322 847.164856 822.490173 832.360046 
806.040344 847.164856 824.135132 834.005005 
799.460449 845.519897 822.490173 832.360046 
804.395386 845.519897 822.490173 830.715088 
806.040344 845.519897 822.490173 822.490173 
806.040344 848.809875 822.490173 819.200195 
807.685364 847.164856 820.845215 824.135132 
806.040344 843.874939 824.135132 837.294983 
801.105408 840.584961 824.135132 832.360046 
801.105408 842.229919 822.490173 835.650024 
802.750427 843.874939 820.845215 832.360046 
807.685364 845.519897 820.845215 830.715088 
806.040344 840.584961 824.135132 835.650024 
804.395386 830.715088 824.135132 830.715088 
807.685364 829.070068 822.490173 832.360046 
809.330322 835.650024 822.490173 834.005005 
812.620300 843.874939 819.200195 838.940002 
807.685364 845.519897 820.845215 840.584961 
806.040344 845.519897 822.490173 837.294983 
804.395386 842.229919 822.490173 832.360046 
806.040344 843.874939 822.490173 830.715088 
809.330322 847.164856 820.845215 830.715088 
809.330322 847.164856 820.845215 830.715088 
809.330322 843.874939 819.200195 829.070068 
815.910278 847.164856 820.845215 829.070068 
815.910278 848.809875 820.845215 820.845215 
819.200195 847.164856 820.845215 822.490173 
815.910278 848.809875 822.490173 820.845215 
812.620300 843.874939 822.490173 825.780151 
809.330322 842.229919 824.135132 842.229919 
802.750427 838.940002 825.780151 838.940002 
802.750427 840.584961 824.135132 835.650024 
792.880554 840.584961 824.135132 834.005005 
801.105408 842.229919 822.490173 832.360046 
806.040344 842.229919 822.490173 842.229919 
801.105408 840.584961 824.135132 834.005005 
801.105408 842.229919 822.490173 830.715088 
801.105408 842.229919 820.845215 830.715088 
801.105408 842.229919 824.135132 834.005005 
804.395386 843.874939 819.200195 832.360046 
804.395386 842.229919 820.845215 834.005005 
804.395386 842.229919 822.490173 832.360046 
804.395386 840.584961 822.490173 834.005005 
796.170471 838.940002 822.490173 834.005005 
797.815491 837.294983 824.135132 835.650024 
801.105408 837.294983 824.135132 838.940002 
804.395386 838.940002 822.490173 840.584961 
809.330322 838.940002 824.135132 830.715088 
806.040344 840.584961 827.425110 835.650024 
806.040344 838.940002 824.135132 832.360046 
807.685364 842.229919 822.490173 824.135132 
804.395386 840.584961 822.490173 842.229919 
807.685364 842.229919 819.200195 830.715088 
807.685364 843.874939 820.845215 827.425110 
806.040344 842.229919 822.490173 829.070068 
809.330322 847.164856 819.200195 829.070068 
802.750427 845.519897 820.845215 832.360046 
807.685364 845.519897 822.490173 843.874939 
809.330322 845.519897 822.490173 835.650024 
809.330322 845.519897 820.845215 830.715088 
810.975281 845.519897 820.845215 834.005005 
809.330322 845.519897 820.845215 827.425110 
812.620300 847.164856 820.845215 837.294983 
817.555237 847.164856 820.845215 835.650024 
810.975281 845.519897 819.200195 832.360046 
807.685364 843.874939 820.845215 834.005005 
807.685364 845.519897 819.200195 827.425110 
812.620300 847.164856 819.200195 829.070068 
810.975281 847.164856 820.845215 827.425110 
807.685364 843.874939 822.490173 834.005005 
807.685364 842.229919 819.200195 834.005005 
809.330322 840.584961 819.200195 830.715088 
812.620300 840.584961 819.200195 837.294983 
809.330322 840.584961 820.845215 829.070068 
804.395386 838.940002 822.490173 834.005005 
810.975281 840.584961 820.845215 845.519897 
810.975281 842.229919 817.555237 832.360046 
812.620300 842.229919 819.200195 832.360046 
812.620300 842.229919 817.555237 822.490173 
810.975281 840.584961 817.555237 830.715088 
814.265259 838.940002 819.200195 835.650024 
806.040344 838.940002 817.555237 815.910278 
806.040344 838.940002 817.555237 819.200195 
812.620300 840.584961 817.555237 819.200195 
819.200195 840.584961 819.200195 827.425110 
824.135132 838.940002 819.200195 832.360046 
819.200195 840.584961 819.200195 832.360046 
817.555237 842.229919 817.555237 822.490173 
815.910278 842.229919 815.910278 824.135132 
817.555237 840.584961 815.910278 829.070068 
815.910278 840.584961 815.910278 819.200195 
809.330322 842.229919 817.555237 822.490173 
802.750427 840.584961 820.845215 837.294983 
807.685364 840.584961 819.200195 827.425110 
802.750427 842.229919 819.200195 829.070068 
809.330322 843.874939 819.200195 829.070068 
801.105408 842.229919 819.200195 822.490173 
806.040344 845.519897 819.200195 830.715088 
809.330322 845.519897 817.555237 829.070068 
806.040344 848.809875 817.555237 827.425110 
810.975281 852.099792 817.555237 829.070068 
809.330322 848.809875 817.555237 825.780151 
815.910278 850.454834 820.845215 827.425110 
820.845215 850.454834 819.200195 827.425110 
815.910278 848.809875 820.845215 829.070068 
814.265259 848.809875 822.490173 835.650024 
807.685364 847.164856 819.200195 829.070068 
809.330322 847.164856 820.845215 830.715088 
810.975281 848.809875 820.845215 825.780151 
810.975281 848.809875 820.845215 842.229919 
812.620300 847.164856 822.490173 838.940002 
812.620300 847.164856 824.135132 838.940002 
806.040344 847.164856 822.490173 829.070068 
804.395386 847.164856 820.845215 830.715088 
802.750427 847.164856 819.200195 832.360046 
806.040344 848.809875 820.845215 834.005005 
807.685364 852.099792 819.200195 832.360046 
809.330322 848.809875 819.200195 827.425110 
807.685364 847.164856 820.845215 829.070068 
807.685364 842.229919 822.490173 827.425110 
810.975281 842.229919 822.490173 829.070068 
806.040344 843.874939 824.135132 827.425110 
810.975281 845.519897 824.135132 835.650024 
809.330322 847.164856 820.845215 832.360046 
807.685364 847.164856 822.490173 830.715088 
809.330322 847.164856 820.845215 830.715088 
807.685364 847.164856 820.845215 837.294983 
806.040344 845.519897 820.845215 837.294983 
801.105408 843.874939 820.845215 822.490173 
802.750427 848.809875 819.200195 824.135132 
804.395386 848.809875 817.555237 815.910278 
804.395386 848.809875 815.910278 822.490173 
799.460449 847.164856 817.555237 825.780151 
806.040344 848.809875 817.555237 824.135132 
806.040344 850.454834 820.845215 835.650024 
814.265259 850.454834 820.845215 840.584961 
815.910278 848.809875 819.200195 840.584961 
807.685364 845.519897 819.200195 840.584961 
807.685364 842.229919 820.845215 838.940002 
815.910278 843.874939 819.200195 838.940002 
809.330322 843.874939 820.845215 842.229919 
807.685364 843.874939 820.845215 837.294983 
807.685364 842.229919 822.490173 832.360046 
809.330322 843.874939 822.490173 832.360046 
814.265259 845.519897 822.490173 834.005005 
817.555237 847.164856 822.490173 837.294983 
810.975281 847.164856 820.845215 832.360046 
802.750427 847.164856 817.555237 822.490173 
807.685364 848.809875 815.910278 824.135132 
807.685364 850.454834 815.910278 822.490173 
812.620300 853.744812 817.555237 824.135132 
809.330322 850.454834 817.555237 824.135132 
807.685364 848.809875 817.555237 820.845215 
807.685364 850.454834 819.200195 827.425110 
812.620300 850.454834 820.845215 835.650024 
815.910278 850.454834 819.200195 834.005005 
812.620300 848.809875 817.555237 834.005005 
812.620300 848.809875 819.200195 835.650024 
814.265259 850.454834 815.910278 830.715088 
812.620300 850.454834 815.910278 838.940002 
814.265259 850.454834 817.555237 835.650024 
812.620300 848.809875 814.265259 827.425110 
806.040344 847.164856 815.910278 829.070068 
809.330322 848.809875 817.555237 825.780151 
802.750427 845.519897 815.910278 825.780151 
809.330322 843.874939 817.555237 827.425110 
812.620300 845.519897 817.555237 830.715088 
810.975281 847.164856 817.555237 829.070068 
814.265259 847.164856 817.555237 827.425110 
812.620300 847.164856 815.910278 825.780151 
809.330322 848.809875 817.555237 819.200195 
810.975281 848.809875 815.910278 820.845215 
812.620300 850.454834 815.910278 822.490173 
810.975281 852.099792 815.910278 824.135132 
807.685364 848.809875 817.555237 822.490173 
807.685364 850.454834 814.265259 827.425110 
799.460449 850.454834 812.620300 822.490173 
806.040344 852.099792 815.910278 829.070068 
812.620300 855.389771 814.265259 824.135132 
809.330322 855.389771 817.555237 825.780151 
810.975281 855.389771 817.555237 832.360046 
809.330322 852.099792 815.910278 832.360046 
806.040344 853.744812 815.910278 829.070068 
801.105408 852.099792 815.910278 820.845215 
801.105408 848.809875 815.910278 825.780151 
802.750427 848.809875 814.265259 819.200195 
801.105408 848.809875 814.265259 827.425110 
804.395386 848.809875 812.620300 817.555237 
806.040344 850.454834 812.620300 817.555237 
802.750427 847.164856 810.975281 815.910278 
806.040344 847.164856 810.975281 815.910278 
802.750427 848.809875 814.265259 824.135132 
802.750427 848.809875 810.975281 814.265259 
797.815491 847.164856 810.975281 807.685364 
804.395386 845.519897 812.620300 810.975281 
802.750427 847.164856 810.975281 810.975281 
799.460449 847.164856 814.265259 819.200195 
804.395386 848.809875 815.910278 822.490173 
806.040344 848.809875 815.910278 820.845215 
802.750427 847.164856 815.910278 815.910278 
794.525513 847.164856 814.265259 812.620300 
789.590576 850.454834 812.620300 819.200195 
791.235535 850.454834 812.620300 809.330322 
786.300598 850.454834 810.975281 810.975281 
791.235535 850.454834 810.975281 814.265259 
789.590576 850.454834 809.330322 807.685364 
783.010620 852.099792 807.685364 809.330322 
789.590576 852.099792 809.330322 804.395386 
794.525513 853.744812 809.330322 809.330322 
797.815491 853.744812 809.330322 812.620300 
804.395386 855.389771 812.620300 815.910278 
807.685364 853.744812 814.265259 822.490173 
806.040344 850.454834 815.910278 822.490173 
804.395386 848.809875 815.910278 817.555237 
807.685364 848.809875 814.265259 817.555237 
809.330322 847.164856 814.265259 812.620300 
802.750427 848.809875 815.910278 812.620300 
796.170471 845.519897 817.555237 812.620300 
801.105408 845.519897 817.555237 824.135132 
796.170471 847.164856 817.555237 825.780151 
799.460449 848.809875 815.910278 819.200195 
792.880554 847.164856 814.265259 817.555237 
787.945557 850.454834 814.265259 815.910278 
794.525513 850.454834 814.265259 810.975281 
787.945557 847.164856 814.265259 815.910278 
794.525513 847.164856 815.910278 814.265259 
797.815491 848.809875 817.555237 814.265259 
801.105408 847.164856 815.910278 830.715088 
806.040344 848.809875 815.910278 829.070068 
802.750427 850.454834 814.265259 824.135132 
802.750427 847.164856 814.265259 824.135132 
804.395386 847.164856 814.265259 829.070068 
802.750427 845.519897 815.910278 820.845215 
794.525513 845.519897 814.265259 815.910278 
796.170471 847.164856 814.265259 817.555237 
799.460449 847.164856 814.265259 812.620300 
801.105408 845.519897 814.265259 827.425110 
799.460449 845.519897 814.265259 819.200195 
794.525513 845.519897 812.620300 809.330322 
797.815491 845.519897 812.620300 820.845215 
796.170471 845.519897 812.620300 812.620300 
796.170471 845.519897 814.265259 815.910278 
797.815491 845.519897 815.910278 812.620300 
797.815491 843.874939 815.910278 812.620300 
801.105408 842.229919 817.555237 814.265259 
810.975281 840.584961 819.200195 815.910278 
814.265259 843.874939 817.555237 815.910278 
817.555237 842.229919 819.200195 819.200195 
825.780151 842.229919 817.555237 822.490173 
824.135132 842.229919 815.910278 820.845215 
817.555237 840.584961 815.910278 829.070068 
807.685364 837.294983 819.200195 829.070068 
799.460449 837.294983 817.555237 830.715088 
799.460449 837.294983 820.845215 829.070068 
801.105408 838.940002 819.200195 830.715088 
796.170471 838.940002 819.200195 830.715088 
802.750427 837.294983 820.845215 825.780151 
801.105408 840.584961 820.845215 827.425110 
801.105408 838.940002 820.845215 824.135132 
806.040344 837.294983 820.845215 830.715088 
796.170471 837.294983 820.845215 825.780151 
797.815491 835.650024 820.845215 824.135132 
802.750427 837.294983 820.845215 825.780151 
799.460449 837.294983 822.490173 827.425110 
796.170471 837.294983 824.135132 827.425110 
799.460449 837.294983 824.135132 829.070068 
792.880554 837.294983 822.490173 827.425110 
792.880554 838.940002 822.490173 822.490173 
796.170471 837.294983 822.490173 824.135132 
796.170471 838.940002 822.490173 819.200195 
797.815491 842.229919 822.490173 825.780151 
801.105408 840.584961 822.490173 825.780151 
802.750427 838.940002 822.490173 820.845215 
802.750427 840.584961 822.490173 827.425110 
804.395386 840.584961 820.845215 825.780151 
802.750427 840.584961 822.490173 822.490173 
802.750427 840.584961 824.135132 819.200195 
806.040344 837.294983 824.135132 824.135132 
804.395386 837.294983 824.135132 827.425110 
806.040344 838.940002 822.490173 832.360046 
799.460449 837.294983 824.135132 827.425110 
801.105408 835.650024 822.490173 822.490173 
806.040344 837.294983 824.135132 830.715088 
804.395386 837.294983 824.135132 830.715088 
809.330322 838.940002 825.780151 819.200195 
806.040344 838.940002 827.425110 827.425110 
799.460449 835.650024 825.780151 824.135132 
804.395386 837.294983 825.780151 827.425110 
804.395386 835.650024 824.135132 829.070068 
804.395386 834.005005 825.780151 827.425110 
801.105408 832.360046 825.780151 824.135132 
806.040344 834.005005 822.490173 824.135132 
806.040344 835.650024 822.490173 822.490173 
807.685364 835.650024 824.135132 824.135132 
810.975281 835.650024 824.135132 829.070068 
814.265259 837.294983 825.780151 830.715088 
812.620300 837.294983 825.780151 834.005005 
812.620300 837.294983 825.780151 834.005005 
815.910278 838.940002 827.425110 838.940002 
814.265259 838.940002 825.780151 837.294983 
819.200195 838.940002 824.135132 834.005005 
814.265259 840.584961 825.780151 834.005005 
807.685364 840.584961 824.135132 832.360046 
802.750427 838.940002 820.845215 825.780151 
807.685364 840.584961 822.490173 822.490173 
814.265259 840.584961 822.490173 824.135132 
809.330322 842.229919 820.845215 824.135132 
812.620300 843.874939 822.490173 830.715088 
812.620300 843.874939 822.490173 830.715088 
809.330322 845.519897 822.490173 825.780151 
810.975281 843.874939 820.845215 827.425110 
809.330322 845.519897 824.135132 827.425110 
807.685364 845.519897 822.490173 824.135132 
809.330322 845.519897 822.490173 829.070068 
814.265259 847.164856 822.490173 829.070068 
812.620300 847.164856 820.845215 827.425110 
806.040344 847.164856 820.845215 834.005005 
809.330322 848.809875 825.780151 829.070068 
810.975281 847.164856 824.135132 829.070068 
812.620300 847.164856 820.845215 827.425110 
812.620300 845.519897 822.490173 834.005005 
810.975281 847.164856 820.845215 834.005005 
812.620300 850.454834 824.135132 835.650024 
812.620300 852.099792 824.135132 835.650024 
812.620300 850.454834 822.490173 832.360046 
812.620300 852.099792 822.490173 837.294983 
810.975281 853.744812 820.845215 829.070068 
812.620300 853.744812 820.845215 835.650024 
814.265259 855.389771 820.845215 834.005005 
814.265259 853.744812 819.200195 829.070068 
810.975281 855.389771 817.555237 832.360046 
807.685364 857.034729 815.910278 827.425110 
812.620300 857.034729 815.910278 829.070068 
809.330322 857.034729 817.555237 832.360046 
802.750427 857.034729 815.910278 829.070068 
