842.229919 837.294983 825.780151 858.679749 
845.519897 835.650024 825.780151 860.324707 
847.164856 834.005005 824.135132 860.324707 
840.584961 837.294983 820.845215 848.809875 
847.164856 837.294983 820.845215 858.679749 
847.164856 835.650024 822.490173 857.034729 
850.454834 835.650024 820.845215 866.904663 
845.519897 837.294983 819.200195 875.129517 
840.584961 832.360046 819.200195 865.259644 
855.389771 827.425110 825.780151 880.064453 
860.324707 834.005005 825.780151 878.419495 
858.679749 843.874939 817.555237 870.194580 
858.679749 843.874939 815.910278 875.129517 
861.969727 850.454834 812.620300 871.839600 
865.259644 842.229919 814.265259 873.484558 
876.774536 840.584961 815.910278 881.709473 
870.194580 843.874939 814.265259 884.999451 
870.194580 840.584961 810.975281 888.289368 
881.709473 838.940002 810.975281 883.354431 
878.419495 840.584961 810.975281 891.579346 
881.709473 840.584961 810.975281 906.384155 
886.644409 840.584961 809.330322 899.804260 
894.869324 842.229919 810.975281 916.254028 
898.159241 842.229919 809.330322 908.029175 
901.449219 842.229919 806.040344 908.029175 
904.739197 838.940002 804.395386 919.544006 
916.254028 840.584961 804.395386 916.254028 
912.964111 842.229919 804.395386 916.254028 
909.674133 842.229919 802.750427 917.899048 
921.188965 843.874939 802.750427 922.833984 
917.899048 840.584961 799.460449 926.123962 
922.833984 840.584961 797.815491 922.833984 
924.478943 837.294983 799.460449 926.123962 
924.478943 837.294983 801.105408 944.218689 
932.703857 838.940002 799.460449 935.993835 
934.348816 840.584961 801.105408 942.573730 
935.993835 840.584961 801.105408 949.153687 
947.508667 830.715088 802.750427 944.218689 
944.218689 832.360046 801.105408 952.443604 
934.348816 842.229919 796.170471 939.283752 
922.833984 840.584961 802.750427 940.928772 
924.478943 845.519897 801.105408 937.638794 
940.928772 843.874939 799.460449 944.218689 
944.218689 838.940002 802.750427 940.928772 
939.283752 842.229919 799.460449 939.283752 
939.283752 840.584961 801.105408 944.218689 
939.283752 838.940002 802.750427 944.218689 
944.218689 840.584961 804.395386 945.863708 
947.508667 843.874939 804.395386 935.993835 
944.218689 842.229919 809.330322 955.733582 
954.088623 838.940002 807.685364 959.023560 
944.218689 838.940002 806.040344 952.443604 
945.863708 842.229919 806.040344 955.733582 
937.638794 840.584961 807.685364 945.863708 
934.348816 842.229919 807.685364 940.928772 
937.638794 842.229919 807.685364 944.218689 
932.703857 840.584961 812.620300 942.573730 
931.058899 845.519897 810.975281 935.993835 
927.768921 843.874939 812.620300 940.928772 
917.899048 840.584961 809.330322 935.993835 
921.188965 842.229919 809.330322 921.188965 
922.833984 842.229919 809.330322 919.544006 
921.188965 847.164856 810.975281 914.609070 
922.833984 848.809875 812.620300 922.833984 
924.478943 848.809875 810.975281 924.478943 
922.833984 852.099792 812.620300 927.768921 
914.609070 848.809875 814.265259 926.123962 
919.544006 852.099792 814.265259 922.833984 
914.609070 850.454834 812.620300 916.254028 
916.254028 848.809875 809.330322 912.964111 
916.254028 852.099792 809.330322 917.899048 
911.319092 853.744812 810.975281 917.899048 
906.384155 853.744812 810.975281 919.544006 
904.739197 853.744812 812.620300 912.964111 
903.094238 852.099792 812.620300 904.739197 
899.804260 852.099792 812.620300 904.739197 
904.739197 853.744812 814.265259 908.029175 
901.449219 852.099792 815.910278 906.384155 
894.869324 852.099792 814.265259 906.384155 
898.159241 855.389771 817.555237 906.384155 
899.804260 855.389771 815.910278 899.804260 
904.739197 858.679749 814.265259 891.579346 
899.804260 857.034729 815.910278 889.934387 
886.644409 853.744812 817.555237 903.094238 
883.354431 853.744812 815.910278 893.224304 
884.999451 853.744812 815.910278 896.514282 
886.644409 857.034729 817.555237 889.934387 
891.579346 860.324707 817.555237 889.934387 
884.999451 857.034729 817.555237 894.869324 
883.354431 855.389771 815.910278 884.999451 
880.064453 853.744812 814.265259 884.999451 
876.774536 852.099792 817.555237 888.289368 
873.484558 852.099792 817.555237 884.999451 
871.839600 852.099792 817.555237 884.999451 
873.484558 848.809875 817.555237 878.419495 
873.484558 852.099792 815.910278 870.194580 
880.064453 853.744812 815.910278 866.904663 
876.774536 857.034729 819.200195 868.549622 
865.259644 853.744812 815.910278 873.484558 
861.969727 853.744812 815.910278 866.904663 
855.389771 853.744812 817.555237 876.774536 
858.679749 853.744812 815.910278 866.904663 
861.969727 853.744812 819.200195 868.549622 
863.614685 852.099792 817.555237 866.904663 
860.324707 852.099792 817.555237 863.614685 
857.034729 853.744812 817.555237 860.324707 
855.389771 850.454834 819.200195 860.324707 
853.744812 850.454834 819.200195 865.259644 
858.679749 852.099792 817.555237 858.679749 
855.389771 852.099792 817.555237 853.744812 
855.389771 852.099792 819.200195 853.744812 
852.099792 852.099792 817.555237 848.809875 
850.454834 852.099792 819.200195 857.034729 
843.874939 852.099792 822.490173 852.099792 
845.519897 853.744812 822.490173 857.034729 
847.164856 853.744812 822.490173 850.454834 
852.099792 855.389771 820.845215 852.099792 
847.164856 855.389771 819.200195 845.519897 
847.164856 853.744812 820.845215 845.519897 
847.164856 853.744812 820.845215 855.389771 
845.519897 853.744812 822.490173 858.679749 
848.809875 852.099792 820.845215 861.969727 
847.164856 850.454834 820.845215 855.389771 
850.454834 850.454834 817.555237 847.164856 
848.809875 852.099792 815.910278 845.519897 
843.874939 853.744812 820.845215 847.164856 
843.874939 853.744812 822.490173 845.519897 
843.874939 850.454834 824.135132 850.454834 
843.874939 848.809875 817.555237 840.584961 
850.454834 850.454834 819.200195 847.164856 
857.034729 855.389771 817.555237 842.229919 
858.679749 855.389771 817.555237 840.584961 
861.969727 853.744812 824.135132 843.874939 
852.099792 852.099792 822.490173 842.229919 
847.164856 852.099792 822.490173 852.099792 
847.164856 853.744812 825.780151 858.679749 
840.584961 847.164856 822.490173 852.099792 
835.650024 847.164856 822.490173 843.874939 
824.135132 848.809875 824.135132 843.874939 
822.490173 847.164856 822.490173 837.294983 
824.135132 850.454834 817.555237 837.294983 
830.715088 850.454834 819.200195 850.454834 
837.294983 850.454834 820.845215 840.584961 
834.005005 850.454834 820.845215 843.874939 
829.070068 847.164856 820.845215 843.874939 
829.070068 848.809875 819.200195 837.294983 
837.294983 852.099792 822.490173 842.229919 
834.005005 850.454834 820.845215 847.164856 
834.005005 848.809875 820.845215 845.519897 
837.294983 845.519897 820.845215 853.744812 
824.135132 847.164856 815.910278 840.584961 
832.360046 852.099792 815.910278 845.519897 
832.360046 852.099792 819.200195 840.584961 
830.715088 848.809875 817.555237 838.940002 
840.584961 850.454834 820.845215 842.229919 
838.940002 847.164856 819.200195 838.940002 
843.874939 847.164856 815.910278 834.005005 
837.294983 848.809875 822.490173 840.584961 
829.070068 847.164856 817.555237 835.650024 
843.874939 847.164856 820.845215 848.809875 
848.809875 850.454834 827.425110 858.679749 
842.229919 855.389771 810.975281 852.099792 
829.070068 850.454834 807.685364 837.294983 
804.395386 847.164856 817.555237 812.620300 
822.490173 855.389771 827.425110 834.005005 
832.360046 855.389771 838.940002 835.650024 
799.460449 850.454834 824.135132 807.685364 
789.590576 857.034729 819.200195 802.750427 
784.655640 848.809875 787.945557 796.170471 
763.270874 827.425110 824.135132 773.140747 
759.980896 850.454834 824.135132 761.625916 
763.270874 853.744812 824.135132 768.205811 
761.625916 845.519897 824.135132 766.560852 
801.105408 857.034729 817.555237 802.750427 
802.750427 850.454834 817.555237 814.265259 
799.460449 848.809875 810.975281 799.460449 
817.555237 860.324707 827.425110 820.845215 
838.940002 857.034729 819.200195 837.294983 
819.200195 842.229919 806.040344 814.265259 
817.555237 857.034729 822.490173 819.200195 
827.425110 861.969727 814.265259 835.650024 
801.105408 848.809875 802.750427 806.040344 
815.910278 845.519897 824.135132 824.135132 
814.265259 840.584961 807.685364 824.135132 
832.360046 853.744812 820.845215 838.940002 
840.584961 847.164856 817.555237 838.940002 
830.715088 848.809875 810.975281 834.005005 
822.490173 850.454834 815.910278 829.070068 
829.070068 848.809875 814.265259 835.650024 
843.874939 857.034729 820.845215 845.519897 
847.164856 850.454834 815.910278 838.940002 
840.584961 852.099792 814.265259 830.715088 
838.940002 853.744812 815.910278 834.005005 
842.229919 852.099792 817.555237 827.425110 
832.360046 852.099792 815.910278 840.584961 
829.070068 853.744812 815.910278 829.070068 
830.715088 852.099792 817.555237 842.229919 
827.425110 848.809875 815.910278 838.940002 
830.715088 850.454834 815.910278 820.845215 
822.490173 848.809875 814.265259 832.360046 
827.425110 850.454834 817.555237 830.715088 
825.780151 853.744812 817.555237 830.715088 
827.425110 852.099792 817.555237 835.650024 
822.490173 853.744812 820.845215 832.360046 
824.135132 852.099792 819.200195 835.650024 
820.845215 847.164856 819.200195 834.005005 
824.135132 850.454834 817.555237 829.070068 
832.360046 853.744812 822.490173 834.005005 
825.780151 850.454834 822.490173 835.650024 
819.200195 845.519897 819.200195 825.780151 
812.620300 848.809875 820.845215 832.360046 
812.620300 850.454834 815.910278 830.715088 
817.555237 852.099792 815.910278 832.360046 
824.135132 857.034729 822.490173 834.005005 
827.425110 853.744812 825.780151 838.940002 
824.135132 852.099792 822.490173 830.715088 
822.490173 852.099792 822.490173 829.070068 
820.845215 848.809875 814.265259 829.070068 
827.425110 852.099792 817.555237 835.650024 
822.490173 852.099792 820.845215 835.650024 
820.845215 848.809875 817.555237 835.650024 
819.200195 853.744812 820.845215 832.360046 
822.490173 860.324707 824.135132 829.070068 
824.135132 855.389771 815.910278 840.584961 
822.490173 857.034729 815.910278 835.650024 
817.555237 848.809875 814.265259 834.005005 
822.490173 850.454834 814.265259 835.650024 
827.425110 852.099792 819.200195 837.294983 
835.650024 845.519897 815.910278 840.584961 
842.229919 848.809875 815.910278 848.809875 
852.099792 853.744812 827.425110 855.389771 
843.874939 858.679749 824.135132 853.744812 
824.135132 863.614685 815.910278 840.584961 
819.200195 857.034729 810.975281 827.425110 
822.490173 858.679749 814.265259 819.200195 
827.425110 855.389771 820.845215 827.425110 
835.650024 858.679749 824.135132 842.229919 
827.425110 853.744812 817.555237 832.360046 
827.425110 852.099792 815.910278 842.229919 
835.650024 853.744812 824.135132 843.874939 
837.294983 852.099792 822.490173 840.584961 
832.360046 853.744812 819.200195 832.360046 
837.294983 857.034729 817.555237 838.940002 
835.650024 853.744812 820.845215 840.584961 
824.135132 850.454834 822.490173 843.874939 
825.780151 848.809875 820.845215 840.584961 
824.135132 850.454834 817.555237 830.715088 
829.070068 855.389771 820.845215 832.360046 
830.715088 855.389771 817.555237 829.070068 
830.715088 855.389771 822.490173 835.650024 
830.715088 853.744812 824.135132 840.584961 
834.005005 852.099792 824.135132 840.584961 
830.715088 853.744812 822.490173 838.940002 
835.650024 855.389771 822.490173 842.229919 
835.650024 853.744812 820.845215 838.940002 
832.360046 852.099792 822.490173 838.940002 
829.070068 852.099792 822.490173 834.005005 
827.425110 850.454834 820.845215 835.650024 
832.360046 850.454834 819.200195 834.005005 
830.715088 850.454834 820.845215 847.164856 
832.360046 852.099792 819.200195 838.940002 
835.650024 855.389771 819.200195 834.005005 
829.070068 855.389771 815.910278 835.650024 
832.360046 855.389771 822.490173 837.294983 
827.425110 852.099792 825.780151 835.650024 
820.845215 848.809875 820.845215 837.294983 
822.490173 852.099792 819.200195 825.780151 
829.070068 855.389771 814.265259 834.005005 
835.650024 855.389771 817.555237 834.005005 
829.070068 847.164856 830.715088 830.715088 
817.555237 845.519897 820.845215 824.135132 
815.910278 853.744812 822.490173 820.845215 
817.555237 858.679749 815.910278 822.490173 
827.425110 860.324707 820.845215 835.650024 
829.070068 855.389771 824.135132 829.070068 
822.490173 847.164856 820.845215 822.490173 
817.555237 847.164856 819.200195 834.005005 
827.425110 853.744812 820.845215 843.874939 
830.715088 855.389771 829.070068 842.229919 
812.620300 852.099792 817.555237 824.135132 
815.910278 848.809875 815.910278 810.975281 
819.200195 852.099792 815.910278 822.490173 
820.845215 850.454834 814.265259 822.490173 
822.490173 850.454834 824.135132 830.715088 
824.135132 852.099792 817.555237 819.200195 
822.490173 848.809875 819.200195 819.200195 
815.910278 847.164856 825.780151 838.940002 
824.135132 845.519897 827.425110 835.650024 
824.135132 845.519897 822.490173 830.715088 
814.265259 847.164856 820.845215 834.005005 
812.620300 852.099792 822.490173 830.715088 
812.620300 852.099792 820.845215 827.425110 
814.265259 845.519897 820.845215 827.425110 
825.780151 847.164856 817.555237 829.070068 
829.070068 847.164856 815.910278 829.070068 
829.070068 850.454834 820.845215 834.005005 
824.135132 852.099792 824.135132 830.715088 
827.425110 853.744812 819.200195 824.135132 
832.360046 855.389771 817.555237 824.135132 
830.715088 850.454834 819.200195 827.425110 
832.360046 848.809875 817.555237 819.200195 
825.780151 843.874939 819.200195 829.070068 
824.135132 843.874939 819.200195 840.584961 
829.070068 847.164856 819.200195 835.650024 
827.425110 848.809875 820.845215 842.229919 
827.425110 853.744812 822.490173 832.360046 
824.135132 850.454834 819.200195 829.070068 
824.135132 850.454834 817.555237 829.070068 
834.005005 847.164856 822.490173 837.294983 
835.650024 845.519897 824.135132 840.584961 
835.650024 853.744812 825.780151 843.874939 
834.005005 853.744812 820.845215 837.294983 
822.490173 848.809875 812.620300 822.490173 
825.780151 852.099792 819.200195 832.360046 
829.070068 848.809875 814.265259 822.490173 
845.519897 855.389771 820.845215 845.519897 
847.164856 857.034729 819.200195 835.650024 
832.360046 850.454834 815.910278 835.650024 
832.360046 850.454834 817.555237 837.294983 
832.360046 853.744812 819.200195 837.294983 
825.780151 848.809875 820.845215 840.584961 
827.425110 848.809875 819.200195 834.005005 
827.425110 850.454834 820.845215 838.940002 
830.715088 850.454834 817.555237 832.360046 
834.005005 852.099792 815.910278 840.584961 
832.360046 852.099792 819.200195 837.294983 
832.360046 852.099792 820.845215 838.940002 
830.715088 852.099792 819.200195 845.519897 
834.005005 848.809875 819.200195 830.715088 
838.940002 845.519897 819.200195 840.584961 
829.070068 847.164856 817.555237 847.164856 
825.780151 852.099792 817.555237 834.005005 
825.780151 853.744812 820.845215 845.519897 
824.135132 850.454834 815.910278 834.005005 
838.940002 850.454834 820.845215 843.874939 
835.650024 848.809875 822.490173 852.099792 
830.715088 850.454834 820.845215 843.874939 
834.005005 848.809875 820.845215 845.519897 
840.584961 847.164856 822.490173 857.034729 
842.229919 845.519897 820.845215 858.679749 
840.584961 843.874939 819.200195 858.679749 
845.519897 845.519897 820.845215 857.034729 
852.099792 845.519897 819.200195 855.389771 
860.324707 848.809875 819.200195 855.389771 
852.099792 848.809875 819.200195 868.549622 
853.744812 848.809875 820.845215 866.904663 
861.969727 855.389771 824.135132 865.259644 
865.259644 853.744812 824.135132 871.839600 
866.904663 848.809875 812.620300 852.099792 
868.549622 848.809875 812.620300 853.744812 
863.614685 842.229919 817.555237 857.034729 
857.034729 852.099792 819.200195 858.679749 
847.164856 853.744812 822.490173 861.969727 
845.519897 850.454834 817.555237 857.034729 
838.940002 848.809875 812.620300 848.809875 
843.874939 848.809875 817.555237 858.679749 
848.809875 847.164856 825.780151 860.324707 
852.099792 847.164856 824.135132 870.194580 
837.294983 847.164856 812.620300 850.454834 
838.940002 848.809875 815.910278 843.874939 
840.584961 853.744812 810.975281 850.454834 
842.229919 857.034729 812.620300 857.034729 
850.454834 850.454834 817.555237 863.614685 
838.940002 845.519897 814.265259 852.099792 
837.294983 847.164856 815.910278 850.454834 
843.874939 848.809875 817.555237 850.454834 
848.809875 852.099792 819.200195 848.809875 
840.584961 845.519897 819.200195 848.809875 
835.650024 845.519897 812.620300 843.874939 
834.005005 847.164856 814.265259 840.584961 
840.584961 847.164856 820.845215 847.164856 
845.519897 850.454834 819.200195 853.744812 
838.940002 850.454834 819.200195 843.874939 
847.164856 853.744812 822.490173 855.389771 
843.874939 853.744812 817.555237 848.809875 
834.005005 847.164856 815.910278 842.229919 
832.360046 845.519897 820.845215 843.874939 
827.425110 848.809875 815.910278 842.229919 
835.650024 848.809875 819.200195 843.874939 
840.584961 855.389771 822.490173 837.294983 
837.294983 850.454834 815.910278 837.294983 
829.070068 848.809875 815.910278 842.229919 
829.070068 848.809875 817.555237 840.584961 
838.940002 847.164856 817.555237 842.229919 
838.940002 847.164856 819.200195 840.584961 
838.940002 847.164856 819.200195 847.164856 
829.070068 843.874939 820.845215 842.229919 
832.360046 845.519897 822.490173 850.454834 
834.005005 845.519897 819.200195 845.519897 
838.940002 848.809875 819.200195 838.940002 
843.874939 848.809875 819.200195 835.650024 
842.229919 847.164856 819.200195 838.940002 
835.650024 843.874939 819.200195 843.874939 
835.650024 847.164856 819.200195 840.584961 
822.490173 847.164856 819.200195 847.164856 
825.780151 847.164856 820.845215 838.940002 
840.584961 847.164856 824.135132 840.584961 
838.940002 847.164856 824.135132 842.229919 
832.360046 845.519897 815.910278 825.780151 
837.294983 845.519897 819.200195 838.940002 
832.360046 847.164856 819.200195 842.229919 
834.005005 845.519897 822.490173 843.874939 
838.940002 850.454834 822.490173 842.229919 
837.294983 850.454834 819.200195 827.425110 
840.584961 850.454834 819.200195 829.070068 
847.164856 847.164856 817.555237 834.005005 
847.164856 845.519897 812.620300 834.005005 
838.940002 848.809875 814.265259 835.650024 
830.715088 842.229919 814.265259 832.360046 
830.715088 847.164856 819.200195 830.715088 
829.070068 847.164856 819.200195 838.940002 
838.940002 848.809875 814.265259 837.294983 
848.809875 852.099792 810.975281 838.940002 
843.874939 847.164856 815.910278 847.164856 
840.584961 848.809875 824.135132 837.294983 
840.584961 850.454834 824.135132 840.584961 
838.940002 845.519897 820.845215 840.584961 
835.650024 852.099792 819.200195 842.229919 
838.940002 853.744812 819.200195 847.164856 
835.650024 850.454834 815.910278 840.584961 
830.715088 848.809875 820.845215 834.005005 
835.650024 850.454834 824.135132 842.229919 
830.715088 843.874939 815.910278 837.294983 
830.715088 848.809875 819.200195 842.229919 
835.650024 852.099792 820.845215 842.229919 
830.715088 840.584961 812.620300 830.715088 
829.070068 850.454834 815.910278 842.229919 
830.715088 852.099792 817.555237 842.229919 
837.294983 850.454834 817.555237 843.874939 
840.584961 850.454834 820.845215 843.874939 
840.584961 850.454834 822.490173 845.519897 
835.650024 845.519897 814.265259 834.005005 
835.650024 847.164856 809.330322 838.940002 
837.294983 838.940002 814.265259 840.584961 
834.005005 840.584961 819.200195 838.940002 
829.070068 850.454834 817.555237 847.164856 
830.715088 848.809875 820.845215 840.584961 
825.780151 850.454834 815.910278 835.650024 
820.845215 845.519897 819.200195 834.005005 
824.135132 845.519897 822.490173 832.360046 
822.490173 847.164856 819.200195 843.874939 
827.425110 847.164856 815.910278 830.715088 
830.715088 848.809875 820.845215 845.519897 
832.360046 845.519897 817.555237 838.940002 
830.715088 847.164856 819.200195 840.584961 
829.070068 847.164856 815.910278 835.650024 
832.360046 842.229919 814.265259 835.650024 
824.135132 843.874939 815.910278 832.360046 
830.715088 840.584961 817.555237 832.360046 
840.584961 845.519897 819.200195 837.294983 
834.005005 847.164856 817.555237 843.874939 
832.360046 845.519897 820.845215 843.874939 
824.135132 843.874939 814.265259 840.584961 
820.845215 843.874939 817.555237 843.874939 
825.780151 840.584961 819.200195 837.294983 
820.845215 845.519897 814.265259 834.005005 
824.135132 847.164856 815.910278 835.650024 
824.135132 847.164856 814.265259 830.715088 
829.070068 848.809875 815.910278 834.005005 
829.070068 848.809875 817.555237 843.874939 
832.360046 845.519897 819.200195 842.229919 
827.425110 840.584961 814.265259 838.940002 
827.425110 847.164856 815.910278 832.360046 
829.070068 848.809875 815.910278 837.294983 
829.070068 852.099792 819.200195 843.874939 
834.005005 848.809875 817.555237 832.360046 
834.005005 847.164856 820.845215 842.229919 
830.715088 845.519897 819.200195 832.360046 
825.780151 845.519897 817.555237 840.584961 
827.425110 845.519897 819.200195 842.229919 
830.715088 845.519897 822.490173 842.229919 
820.845215 840.584961 819.200195 837.294983 
817.555237 840.584961 817.555237 832.360046 
819.200195 843.874939 810.975281 832.360046 
817.555237 845.519897 810.975281 834.005005 
827.425110 852.099792 817.555237 832.360046 
830.715088 848.809875 817.555237 832.360046 
834.005005 845.519897 815.910278 832.360046 
835.650024 845.519897 814.265259 834.005005 
824.135132 845.519897 810.975281 829.070068 
815.910278 847.164856 817.555237 840.584961 
815.910278 845.519897 819.200195 838.940002 
820.845215 842.229919 817.555237 840.584961 
815.910278 840.584961 812.620300 834.005005 
819.200195 843.874939 815.910278 834.005005 
815.910278 847.164856 817.555237 824.135132 
815.910278 850.454834 812.620300 820.845215 
819.200195 848.809875 815.910278 830.715088 
814.265259 845.519897 814.265259 822.490173 
819.200195 845.519897 815.910278 820.845215 
825.780151 845.519897 817.555237 835.650024 
832.360046 845.519897 814.265259 829.070068 
829.070068 847.164856 817.555237 829.070068 
820.845215 842.229919 819.200195 838.940002 
825.780151 838.940002 819.200195 830.715088 
829.070068 842.229919 817.555237 837.294983 
830.715088 838.940002 815.910278 837.294983 
830.715088 845.519897 819.200195 840.584961 
830.715088 847.164856 817.555237 842.229919 
835.650024 838.940002 824.135132 848.809875 
834.005005 842.229919 815.910278 842.229919 
830.715088 848.809875 810.975281 829.070068 
830.715088 845.519897 812.620300 835.650024 
827.425110 848.809875 810.975281 840.584961 
835.650024 848.809875 819.200195 834.005005 
835.650024 847.164856 819.200195 837.294983 
830.715088 850.454834 814.265259 837.294983 
835.650024 848.809875 812.620300 843.874939 
840.584961 848.809875 817.555237 838.940002 
837.294983 852.099792 819.200195 845.519897 
838.940002 850.454834 819.200195 840.584961 
832.360046 848.809875 817.555237 842.229919 
832.360046 847.164856 817.555237 847.164856 
835.650024 843.874939 815.910278 838.940002 
835.650024 845.519897 819.200195 840.584961 
830.715088 848.809875 822.490173 847.164856 
827.425110 848.809875 819.200195 837.294983 
832.360046 848.809875 820.845215 832.360046 
832.360046 843.874939 815.910278 830.715088 
834.005005 840.584961 815.910278 830.715088 
830.715088 847.164856 810.975281 838.940002 
825.780151 847.164856 814.265259 827.425110 
825.780151 852.099792 822.490173 840.584961 
832.360046 847.164856 820.845215 843.874939 
832.360046 848.809875 820.845215 843.874939 
834.005005 852.099792 814.265259 832.360046 
838.940002 852.099792 815.910278 830.715088 
834.005005 852.099792 814.265259 835.650024 
832.360046 850.454834 814.265259 832.360046 
827.425110 845.519897 814.265259 832.360046 
829.070068 842.229919 812.620300 834.005005 
832.360046 848.809875 812.620300 832.360046 
837.294983 852.099792 814.265259 830.715088 
840.584961 857.034729 814.265259 838.940002 
840.584961 855.389771 815.910278 835.650024 
838.940002 852.099792 817.555237 843.874939 
837.294983 852.099792 817.555237 845.519897 
838.940002 852.099792 817.555237 838.940002 
835.650024 850.454834 819.200195 840.584961 
829.070068 850.454834 817.555237 838.940002 
832.360046 850.454834 819.200195 838.940002 
832.360046 850.454834 819.200195 838.940002 
835.650024 848.809875 817.555237 842.229919 
835.650024 847.164856 817.555237 847.164856 
832.360046 853.744812 814.265259 843.874939 
830.715088 852.099792 810.975281 835.650024 
838.940002 853.744812 817.555237 834.005005 
843.874939 850.454834 815.910278 840.584961 
845.519897 848.809875 815.910278 835.650024 
840.584961 850.454834 817.555237 852.099792 
838.940002 852.099792 820.845215 847.164856 
830.715088 848.809875 815.910278 837.294983 
829.070068 850.454834 814.265259 840.584961 
825.780151 852.099792 820.845215 835.650024 
825.780151 852.099792 820.845215 838.940002 
829.070068 852.099792 815.910278 840.584961 
829.070068 848.809875 817.555237 843.874939 
832.360046 847.164856 814.265259 840.584961 
829.070068 848.809875 815.910278 837.294983 
827.425110 845.519897 819.200195 838.940002 
827.425110 845.519897 814.265259 832.360046 
832.360046 845.519897 814.265259 845.519897 
842.229919 845.519897 814.265259 837.294983 
850.454834 850.454834 814.265259 835.650024 
858.679749 848.809875 815.910278 835.650024 
858.679749 847.164856 810.975281 829.070068 
848.809875 850.454834 814.265259 835.650024 
840.584961 848.809875 814.265259 845.519897 
837.294983 847.164856 815.910278 840.584961 
832.360046 848.809875 817.555237 842.229919 
834.005005 850.454834 817.555237 848.809875 
832.360046 852.099792 820.845215 848.809875 
832.360046 850.454834 819.200195 843.874939 
819.200195 840.584961 815.910278 840.584961 
819.200195 842.229919 817.555237 842.229919 
824.135132 847.164856 807.685364 837.294983 
822.490173 843.874939 814.265259 842.229919 
832.360046 850.454834 820.845215 837.294983 
827.425110 850.454834 812.620300 835.650024 
825.780151 847.164856 819.200195 832.360046 
834.005005 848.809875 819.200195 843.874939 
835.650024 847.164856 820.845215 847.164856 
837.294983 847.164856 819.200195 838.940002 
834.005005 843.874939 815.910278 838.940002 
832.360046 843.874939 820.845215 847.164856 
829.070068 847.164856 819.200195 837.294983 
830.715088 848.809875 820.845215 848.809875 
834.005005 852.099792 822.490173 842.229919 
838.940002 850.454834 820.845215 843.874939 
838.940002 848.809875 822.490173 842.229919 
830.715088 847.164856 817.555237 832.360046 
824.135132 847.164856 815.910278 835.650024 
827.425110 848.809875 815.910278 827.425110 
830.715088 845.519897 814.265259 837.294983 
837.294983 845.519897 815.910278 850.454834 
837.294983 847.164856 815.910278 845.519897 
834.005005 845.519897 815.910278 840.584961 
835.650024 845.519897 819.200195 838.940002 
838.940002 848.809875 819.200195 837.294983 
834.005005 845.519897 819.200195 847.164856 
