786.300598 829.070068 830.715088 825.780151 
786.300598 830.715088 830.715088 829.070068 
784.655640 830.715088 829.070068 819.200195 
787.945557 830.715088 829.070068 819.200195 
789.590576 830.715088 830.715088 819.200195 
794.525513 830.715088 832.360046 829.070068 
797.815491 834.005005 830.715088 832.360046 
799.460449 835.650024 830.715088 832.360046 
797.815491 835.650024 830.715088 825.780151 
797.815491 834.005005 830.715088 827.425110 
794.525513 832.360046 829.070068 819.200195 
799.460449 835.650024 827.425110 815.910278 
804.395386 835.650024 827.425110 824.135132 
802.750427 835.650024 825.780151 827.425110 
802.750427 837.294983 827.425110 825.780151 
797.815491 837.294983 825.780151 817.555237 
799.460449 837.294983 825.780151 820.845215 
802.750427 837.294983 825.780151 827.425110 
801.105408 837.294983 825.780151 825.780151 
799.460449 838.940002 825.780151 830.715088 
801.105408 840.584961 825.780151 827.425110 
797.815491 837.294983 825.780151 820.845215 
799.460449 837.294983 825.780151 822.490173 
797.815491 840.584961 822.490173 814.265259 
797.815491 840.584961 824.135132 819.200195 
797.815491 838.940002 824.135132 825.780151 
799.460449 838.940002 824.135132 822.490173 
806.040344 837.294983 822.490173 830.715088 
815.910278 842.229919 819.200195 830.715088 
809.330322 850.454834 815.910278 815.910278 
806.040344 850.454834 817.555237 819.200195 
809.330322 852.099792 814.265259 819.200195 
806.040344 852.099792 814.265259 819.200195 
812.620300 855.389771 812.620300 817.555237 
809.330322 861.969727 809.330322 810.975281 
807.685364 865.259644 809.330322 809.330322 
809.330322 863.614685 807.685364 814.265259 
812.620300 863.614685 807.685364 817.555237 
815.910278 866.904663 807.685364 819.200195 
802.750427 861.969727 806.040344 810.975281 
806.040344 865.259644 807.685364 812.620300 
804.395386 865.259644 807.685364 824.135132 
806.040344 863.614685 809.330322 817.555237 
812.620300 866.904663 810.975281 815.910278 
812.620300 865.259644 809.330322 820.845215 
809.330322 863.614685 809.330322 817.555237 
806.040344 861.969727 809.330322 820.845215 
807.685364 860.324707 810.975281 819.200195 
804.395386 860.324707 814.265259 815.910278 
806.040344 858.679749 812.620300 814.265259 
806.040344 858.679749 814.265259 819.200195 
809.330322 858.679749 815.910278 822.490173 
809.330322 858.679749 815.910278 829.070068 
804.395386 860.324707 815.910278 827.425110 
804.395386 861.969727 812.620300 830.715088 
804.395386 852.099792 814.265259 830.715088 
807.685364 853.744812 814.265259 817.555237 
809.330322 857.034729 815.910278 827.425110 
801.105408 853.744812 820.845215 827.425110 
796.170471 857.034729 819.200195 825.780151 
801.105408 853.744812 819.200195 832.360046 
809.330322 852.099792 822.490173 830.715088 
809.330322 853.744812 820.845215 830.715088 
806.040344 853.744812 822.490173 834.005005 
802.750427 857.034729 822.490173 827.425110 
806.040344 855.389771 822.490173 829.070068 
807.685364 850.454834 824.135132 830.715088 
814.265259 855.389771 824.135132 829.070068 
810.975281 850.454834 825.780151 829.070068 
807.685364 853.744812 822.490173 834.005005 
807.685364 855.389771 820.845215 834.005005 
804.395386 852.099792 820.845215 829.070068 
807.685364 852.099792 822.490173 834.005005 
812.620300 853.744812 822.490173 835.650024 
812.620300 852.099792 822.490173 830.715088 
807.685364 852.099792 822.490173 829.070068 
802.750427 850.454834 820.845215 829.070068 
804.395386 852.099792 820.845215 837.294983 
809.330322 850.454834 822.490173 832.360046 
810.975281 850.454834 820.845215 832.360046 
810.975281 853.744812 820.845215 824.135132 
809.330322 852.099792 819.200195 824.135132 
807.685364 852.099792 819.200195 834.005005 
809.330322 852.099792 820.845215 830.715088 
806.040344 848.809875 820.845215 832.360046 
802.750427 848.809875 819.200195 825.780151 
802.750427 850.454834 820.845215 830.715088 
806.040344 848.809875 820.845215 829.070068 
806.040344 850.454834 820.845215 834.005005 
806.040344 848.809875 820.845215 827.425110 
802.750427 850.454834 819.200195 825.780151 
804.395386 848.809875 819.200195 825.780151 
807.685364 850.454834 820.845215 825.780151 
801.105408 850.454834 820.845215 829.070068 
804.395386 852.099792 820.845215 832.360046 
804.395386 850.454834 820.845215 824.135132 
807.685364 852.099792 819.200195 822.490173 
807.685364 852.099792 820.845215 824.135132 
801.105408 850.454834 820.845215 817.555237 
802.750427 853.744812 819.200195 819.200195 
799.460449 852.099792 819.200195 820.845215 
806.040344 850.454834 820.845215 824.135132 
809.330322 852.099792 820.845215 824.135132 
804.395386 850.454834 822.490173 829.070068 
807.685364 848.809875 820.845215 820.845215 
806.040344 848.809875 820.845215 824.135132 
807.685364 847.164856 820.845215 825.780151 
807.685364 847.164856 819.200195 829.070068 
810.975281 845.519897 820.845215 827.425110 
809.330322 843.874939 819.200195 827.425110 
809.330322 843.874939 820.845215 825.780151 
809.330322 843.874939 822.490173 829.070068 
815.910278 847.164856 820.845215 832.360046 
819.200195 848.809875 822.490173 829.070068 
814.265259 847.164856 820.845215 834.005005 
815.910278 848.809875 819.200195 832.360046 
812.620300 848.809875 817.555237 829.070068 
810.975281 850.454834 815.910278 830.715088 
812.620300 850.454834 820.845215 830.715088 
810.975281 850.454834 820.845215 829.070068 
812.620300 850.454834 820.845215 830.715088 
812.620300 850.454834 820.845215 829.070068 
814.265259 848.809875 819.200195 827.425110 
812.620300 847.164856 820.845215 835.650024 
810.975281 847.164856 819.200195 825.780151 
812.620300 848.809875 819.200195 830.715088 
814.265259 850.454834 817.555237 832.360046 
807.685364 850.454834 817.555237 824.135132 
812.620300 850.454834 817.555237 830.715088 
812.620300 850.454834 819.200195 834.005005 
812.620300 852.099792 819.200195 827.425110 
819.200195 850.454834 817.555237 829.070068 
817.555237 852.099792 817.555237 829.070068 
817.555237 850.454834 819.200195 827.425110 
812.620300 848.809875 820.845215 835.650024 
814.265259 850.454834 819.200195 835.650024 
812.620300 848.809875 820.845215 829.070068 
812.620300 848.809875 819.200195 830.715088 
810.975281 848.809875 819.200195 825.780151 
809.330322 848.809875 819.200195 832.360046 
809.330322 847.164856 817.555237 832.360046 
809.330322 848.809875 815.910278 830.715088 
812.620300 847.164856 817.555237 832.360046 
812.620300 848.809875 817.555237 822.490173 
809.330322 848.809875 819.200195 825.780151 
804.395386 850.454834 819.200195 835.650024 
809.330322 850.454834 820.845215 825.780151 
810.975281 848.809875 822.490173 829.070068 
810.975281 847.164856 819.200195 830.715088 
807.685364 848.809875 817.555237 824.135132 
809.330322 848.809875 817.555237 829.070068 
812.620300 850.454834 819.200195 825.780151 
814.265259 850.454834 819.200195 830.715088 
817.555237 850.454834 820.845215 832.360046 
815.910278 850.454834 817.555237 840.584961 
812.620300 847.164856 817.555237 835.650024 
815.910278 845.519897 817.555237 832.360046 
809.330322 847.164856 817.555237 829.070068 
810.975281 847.164856 819.200195 832.360046 
812.620300 847.164856 820.845215 830.715088 
814.265259 848.809875 820.845215 834.005005 
817.555237 848.809875 820.845215 838.940002 
820.845215 850.454834 822.490173 835.650024 
822.490173 850.454834 820.845215 842.229919 
819.200195 848.809875 820.845215 838.940002 
819.200195 850.454834 824.135132 837.294983 
817.555237 848.809875 825.780151 837.294983 
815.910278 847.164856 825.780151 835.650024 
817.555237 847.164856 825.780151 834.005005 
814.265259 847.164856 822.490173 829.070068 
815.910278 847.164856 822.490173 829.070068 
814.265259 845.519897 820.845215 827.425110 
812.620300 847.164856 820.845215 825.780151 
815.910278 847.164856 822.490173 834.005005 
817.555237 847.164856 822.490173 834.005005 
812.620300 847.164856 824.135132 832.360046 
814.265259 845.519897 820.845215 830.715088 
814.265259 847.164856 822.490173 827.425110 
810.975281 847.164856 822.490173 827.425110 
819.200195 847.164856 819.200195 835.650024 
817.555237 845.519897 819.200195 832.360046 
827.425110 848.809875 820.845215 832.360046 
830.715088 848.809875 820.845215 834.005005 
832.360046 850.454834 820.845215 829.070068 
825.780151 850.454834 819.200195 825.780151 
819.200195 847.164856 819.200195 824.135132 
814.265259 845.519897 824.135132 834.005005 
809.330322 843.874939 820.845215 840.584961 
809.330322 843.874939 822.490173 840.584961 
804.395386 847.164856 820.845215 847.164856 
801.105408 847.164856 822.490173 842.229919 
804.395386 847.164856 824.135132 835.650024 
812.620300 848.809875 824.135132 837.294983 
812.620300 848.809875 822.490173 829.070068 
809.330322 850.454834 822.490173 825.780151 
809.330322 847.164856 822.490173 835.650024 
806.040344 845.519897 819.200195 832.360046 
807.685364 845.519897 822.490173 834.005005 
812.620300 845.519897 824.135132 834.005005 
804.395386 845.519897 824.135132 829.070068 
801.105408 845.519897 824.135132 829.070068 
806.040344 845.519897 822.490173 827.425110 
806.040344 845.519897 820.845215 827.425110 
806.040344 843.874939 822.490173 830.715088 
814.265259 843.874939 822.490173 838.940002 
817.555237 845.519897 822.490173 835.650024 
814.265259 847.164856 822.490173 837.294983 
810.975281 847.164856 822.490173 832.360046 
815.910278 845.519897 824.135132 835.650024 
809.330322 843.874939 820.845215 832.360046 
814.265259 845.519897 819.200195 834.005005 
817.555237 847.164856 820.845215 835.650024 
812.620300 848.809875 820.845215 838.940002 
812.620300 847.164856 820.845215 842.229919 
814.265259 845.519897 820.845215 838.940002 
817.555237 843.874939 819.200195 838.940002 
817.555237 843.874939 822.490173 834.005005 
820.845215 845.519897 820.845215 837.294983 
817.555237 847.164856 820.845215 830.715088 
815.910278 848.809875 820.845215 830.715088 
814.265259 848.809875 819.200195 829.070068 
809.330322 848.809875 822.490173 835.650024 
806.040344 847.164856 822.490173 829.070068 
809.330322 847.164856 822.490173 830.715088 
807.685364 843.874939 824.135132 825.780151 
809.330322 845.519897 822.490173 832.360046 
806.040344 843.874939 820.845215 835.650024 
804.395386 845.519897 820.845215 830.715088 
806.040344 847.164856 822.490173 838.940002 
806.040344 845.519897 820.845215 829.070068 
809.330322 843.874939 822.490173 824.135132 
807.685364 843.874939 822.490173 832.360046 
812.620300 845.519897 822.490173 834.005005 
809.330322 843.874939 824.135132 829.070068 
810.975281 843.874939 822.490173 832.360046 
810.975281 845.519897 822.490173 825.780151 
807.685364 845.519897 820.845215 827.425110 
806.040344 845.519897 820.845215 829.070068 
804.395386 845.519897 820.845215 835.650024 
807.685364 845.519897 822.490173 827.425110 
801.105408 847.164856 822.490173 825.780151 
804.395386 847.164856 822.490173 830.715088 
801.105408 847.164856 822.490173 819.200195 
801.105408 847.164856 822.490173 830.715088 
804.395386 847.164856 820.845215 825.780151 
806.040344 847.164856 822.490173 832.360046 
802.750427 843.874939 819.200195 830.715088 
804.395386 845.519897 819.200195 832.360046 
799.460449 843.874939 820.845215 830.715088 
801.105408 843.874939 822.490173 829.070068 
802.750427 845.519897 824.135132 827.425110 
796.170471 847.164856 825.780151 827.425110 
796.170471 845.519897 825.780151 827.425110 
789.590576 843.874939 825.780151 827.425110 
787.945557 843.874939 825.780151 830.715088 
794.525513 843.874939 824.135132 837.294983 
791.235535 845.519897 822.490173 837.294983 
796.170471 847.164856 824.135132 830.715088 
791.235535 845.519897 824.135132 825.780151 
787.945557 847.164856 824.135132 830.715088 
787.945557 847.164856 820.845215 825.780151 
781.365662 847.164856 822.490173 824.135132 
783.010620 848.809875 822.490173 827.425110 
781.365662 845.519897 822.490173 820.845215 
781.365662 847.164856 824.135132 829.070068 
781.365662 845.519897 822.490173 827.425110 
783.010620 847.164856 824.135132 824.135132 
786.300598 847.164856 824.135132 827.425110 
786.300598 847.164856 824.135132 827.425110 
792.880554 848.809875 824.135132 832.360046 
789.590576 848.809875 824.135132 830.715088 
786.300598 847.164856 825.780151 832.360046 
784.655640 848.809875 824.135132 824.135132 
779.720703 848.809875 824.135132 822.490173 
778.075684 848.809875 827.425110 820.845215 
769.850830 847.164856 825.780151 827.425110 
771.495789 847.164856 824.135132 822.490173 
773.140747 847.164856 824.135132 815.910278 
771.495789 848.809875 824.135132 812.620300 
774.785767 850.454834 824.135132 810.975281 
769.850830 847.164856 825.780151 814.265259 
771.495789 847.164856 825.780151 819.200195 
771.495789 845.519897 825.780151 815.910278 
764.915833 842.229919 827.425110 814.265259 
763.270874 842.229919 827.425110 815.910278 
764.915833 842.229919 825.780151 806.040344 
766.560852 843.874939 825.780151 810.975281 
768.205811 843.874939 825.780151 812.620300 
764.915833 842.229919 825.780151 819.200195 
764.915833 842.229919 827.425110 817.555237 
763.270874 842.229919 825.780151 815.910278 
769.850830 843.874939 827.425110 819.200195 
769.850830 845.519897 825.780151 822.490173 
769.850830 845.519897 825.780151 822.490173 
771.495789 845.519897 825.780151 825.780151 
771.495789 845.519897 827.425110 822.490173 
776.430725 845.519897 827.425110 824.135132 
774.785767 847.164856 824.135132 819.200195 
764.915833 845.519897 824.135132 820.845215 
768.205811 845.519897 824.135132 815.910278 
771.495789 848.809875 825.780151 814.265259 
773.140747 845.519897 825.780151 820.845215 
769.850830 847.164856 824.135132 815.910278 
764.915833 850.454834 824.135132 824.135132 
766.560852 850.454834 822.490173 815.910278 
774.785767 852.099792 825.780151 817.555237 
771.495789 853.744812 825.780151 820.845215 
771.495789 852.099792 824.135132 822.490173 
769.850830 848.809875 825.780151 824.135132 
766.560852 848.809875 825.780151 824.135132 
774.785767 852.099792 825.780151 825.780151 
771.495789 850.454834 825.780151 820.845215 
768.205811 850.454834 822.490173 819.200195 
773.140747 850.454834 824.135132 824.135132 
774.785767 848.809875 824.135132 824.135132 
771.495789 852.099792 824.135132 820.845215 
774.785767 852.099792 825.780151 819.200195 
771.495789 850.454834 824.135132 824.135132 
769.850830 850.454834 822.490173 815.910278 
774.785767 848.809875 824.135132 819.200195 
769.850830 850.454834 825.780151 819.200195 
764.915833 848.809875 824.135132 810.975281 
759.980896 848.809875 825.780151 814.265259 
764.915833 848.809875 827.425110 814.265259 
763.270874 847.164856 825.780151 807.685364 
766.560852 847.164856 825.780151 809.330322 
764.915833 847.164856 825.780151 814.265259 
761.625916 847.164856 825.780151 806.040344 
769.850830 848.809875 824.135132 819.200195 
766.560852 847.164856 827.425110 819.200195 
773.140747 847.164856 827.425110 822.490173 
778.075684 847.164856 825.780151 819.200195 
779.720703 848.809875 825.780151 815.910278 
776.430725 848.809875 825.780151 825.780151 
776.430725 850.454834 825.780151 827.425110 
776.430725 850.454834 825.780151 824.135132 
778.075684 848.809875 825.780151 824.135132 
779.720703 852.099792 824.135132 817.555237 
776.430725 852.099792 825.780151 820.845215 
781.365662 853.744812 825.780151 824.135132 
783.010620 853.744812 825.780151 815.910278 
779.720703 852.099792 827.425110 822.490173 
778.075684 853.744812 822.490173 822.490173 
779.720703 852.099792 820.845215 817.555237 
781.365662 852.099792 822.490173 817.555237 
784.655640 852.099792 824.135132 820.845215 
779.720703 852.099792 824.135132 820.845215 
776.430725 850.454834 824.135132 824.135132 
778.075684 850.454834 822.490173 822.490173 
783.010620 850.454834 820.845215 822.490173 
783.010620 852.099792 820.845215 822.490173 
776.430725 852.099792 820.845215 822.490173 
776.430725 850.454834 822.490173 825.780151 
779.720703 852.099792 824.135132 822.490173 
784.655640 852.099792 827.425110 827.425110 
786.300598 852.099792 825.780151 837.294983 
786.300598 853.744812 824.135132 830.715088 
783.010620 848.809875 820.845215 824.135132 
783.010620 850.454834 822.490173 832.360046 
783.010620 850.454834 822.490173 825.780151 
779.720703 850.454834 822.490173 835.650024 
791.235535 852.099792 824.135132 835.650024 
787.945557 852.099792 824.135132 834.005005 
787.945557 852.099792 824.135132 834.005005 
781.365662 850.454834 822.490173 822.490173 
774.785767 850.454834 822.490173 822.490173 
778.075684 850.454834 820.845215 827.425110 
784.655640 850.454834 820.845215 829.070068 
783.010620 850.454834 820.845215 829.070068 
781.365662 848.809875 819.200195 820.845215 
781.365662 850.454834 820.845215 817.555237 
776.430725 847.164856 822.490173 830.715088 
778.075684 848.809875 822.490173 832.360046 
774.785767 848.809875 824.135132 829.070068 
779.720703 847.164856 825.780151 832.360046 
787.945557 852.099792 824.135132 824.135132 
792.880554 852.099792 822.490173 822.490173 
797.815491 852.099792 822.490173 825.780151 
797.815491 853.744812 819.200195 817.555237 
802.750427 853.744812 822.490173 822.490173 
797.815491 850.454834 824.135132 825.780151 
792.880554 848.809875 820.845215 829.070068 
783.010620 850.454834 822.490173 834.005005 
778.075684 848.809875 824.135132 830.715088 
778.075684 850.454834 822.490173 829.070068 
779.720703 850.454834 824.135132 827.425110 
779.720703 850.454834 824.135132 830.715088 
786.300598 850.454834 824.135132 837.294983 
791.235535 852.099792 822.490173 832.360046 
791.235535 852.099792 822.490173 832.360046 
787.945557 853.744812 820.845215 827.425110 
784.655640 852.099792 819.200195 825.780151 
786.300598 850.454834 819.200195 824.135132 
787.945557 853.744812 820.845215 832.360046 
783.010620 850.454834 820.845215 825.780151 
786.300598 850.454834 819.200195 827.425110 
787.945557 850.454834 822.490173 825.780151 
787.945557 848.809875 822.490173 834.005005 
789.590576 848.809875 820.845215 830.715088 
783.010620 847.164856 822.490173 832.360046 
789.590576 848.809875 817.555237 829.070068 
794.525513 848.809875 817.555237 832.360046 
787.945557 848.809875 815.910278 837.294983 
792.880554 852.099792 815.910278 830.715088 
791.235535 850.454834 819.200195 832.360046 
794.525513 852.099792 819.200195 837.294983 
799.460449 852.099792 820.845215 829.070068 
794.525513 850.454834 820.845215 834.005005 
796.170471 850.454834 820.845215 837.294983 
801.105408 848.809875 822.490173 840.584961 
794.525513 848.809875 822.490173 842.229919 
794.525513 847.164856 819.200195 837.294983 
792.880554 847.164856 820.845215 835.650024 
796.170471 848.809875 824.135132 840.584961 
801.105408 848.809875 822.490173 837.294983 
792.880554 848.809875 822.490173 832.360046 
797.815491 848.809875 820.845215 840.584961 
797.815491 847.164856 820.845215 840.584961 
796.170471 845.519897 819.200195 834.005005 
796.170471 847.164856 817.555237 830.715088 
796.170471 847.164856 817.555237 830.715088 
794.525513 847.164856 817.555237 838.940002 
797.815491 848.809875 820.845215 834.005005 
794.525513 850.454834 819.200195 830.715088 
799.460449 850.454834 819.200195 834.005005 
802.750427 848.809875 820.845215 834.005005 
804.395386 850.454834 819.200195 835.650024 
806.040344 850.454834 819.200195 834.005005 
802.750427 852.099792 819.200195 829.070068 
806.040344 850.454834 819.200195 835.650024 
802.750427 850.454834 819.200195 832.360046 
802.750427 852.099792 817.555237 822.490173 
806.040344 852.099792 817.555237 830.715088 
801.105408 853.744812 819.200195 829.070068 
797.815491 852.099792 819.200195 827.425110 
801.105408 852.099792 817.555237 829.070068 
797.815491 850.454834 817.555237 832.360046 
799.460449 852.099792 819.200195 834.005005 
797.815491 848.809875 819.200195 834.005005 
799.460449 848.809875 817.555237 824.135132 
806.040344 850.454834 819.200195 832.360046 
807.685364 850.454834 817.555237 830.715088 
806.040344 848.809875 820.845215 837.294983 
806.040344 847.164856 820.845215 835.650024 
801.105408 847.164856 820.845215 834.005005 
802.750427 847.164856 822.490173 835.650024 
799.460449 848.809875 820.845215 837.294983 
797.815491 848.809875 822.490173 838.940002 
797.815491 847.164856 820.845215 835.650024 
801.105408 850.454834 822.490173 837.294983 
797.815491 848.809875 822.490173 834.005005 
797.815491 845.519897 822.490173 832.360046 
801.105408 845.519897 819.200195 835.650024 
796.170471 847.164856 819.200195 835.650024 
794.525513 848.809875 820.845215 842.229919 
797.815491 850.454834 819.200195 837.294983 
796.170471 850.454834 820.845215 834.005005 
792.880554 848.809875 819.200195 830.715088 
794.525513 850.454834 817.555237 830.715088 
792.880554 850.454834 817.555237 832.360046 
796.170471 847.164856 820.845215 832.360046 
794.525513 848.809875 819.200195 832.360046 
794.525513 847.164856 822.490173 834.005005 
791.235535 845.519897 822.490173 824.135132 
786.300598 847.164856 819.200195 834.005005 
786.300598 845.519897 817.555237 829.070068 
789.590576 847.164856 815.910278 830.715088 
792.880554 848.809875 815.910278 837.294983 
799.460449 848.809875 819.200195 834.005005 
797.815491 847.164856 819.200195 837.294983 
792.880554 847.164856 817.555237 835.650024 
794.525513 848.809875 819.200195 832.360046 
792.880554 845.519897 819.200195 832.360046 
797.815491 848.809875 819.200195 838.940002 
797.815491 847.164856 820.845215 837.294983 
799.460449 847.164856 819.200195 834.005005 
799.460449 847.164856 819.200195 829.070068 
799.460449 845.519897 820.845215 832.360046 
801.105408 845.519897 822.490173 840.584961 
794.525513 845.519897 820.845215 835.650024 
797.815491 845.519897 819.200195 832.360046 
797.815491 845.519897 819.200195 827.425110 
797.815491 847.164856 819.200195 829.070068 
794.525513 847.164856 819.200195 830.715088 
791.235535 843.874939 820.845215 835.650024 
796.170471 845.519897 820.845215 835.650024 
797.815491 845.519897 820.845215 840.584961 
801.105408 847.164856 820.845215 843.874939 
804.395386 848.809875 820.845215 832.360046 
802.750427 847.164856 819.200195 838.940002 
807.685364 847.164856 820.845215 842.229919 
806.040344 850.454834 819.200195 830.715088 
799.460449 850.454834 819.200195 834.005005 
802.750427 850.454834 817.555237 829.070068 
796.170471 848.809875 819.200195 830.715088 
801.105408 848.809875 822.490173 843.874939 
802.750427 847.164856 819.200195 835.650024 
804.395386 850.454834 819.200195 832.360046 
799.460449 848.809875 820.845215 835.650024 
799.460449 848.809875 820.845215 837.294983 
806.040344 850.454834 820.845215 838.940002 
799.460449 852.099792 822.490173 830.715088 
804.395386 852.099792 822.490173 835.650024 
799.460449 852.099792 824.135132 835.650024 
797.815491 850.454834 824.135132 837.294983 
801.105408 850.454834 820.845215 832.360046 
802.750427 850.454834 822.490173 832.360046 
801.105408 850.454834 824.135132 837.294983 
806.040344 850.454834 824.135132 840.584961 
804.395386 850.454834 820.845215 842.229919 
802.750427 850.454834 819.200195 829.070068 
806.040344 850.454834 820.845215 829.070068 
802.750427 850.454834 819.200195 835.650024 
802.750427 852.099792 820.845215 834.005005 
806.040344 852.099792 820.845215 835.650024 
801.105408 850.454834 822.490173 835.650024 
802.750427 850.454834 822.490173 834.005005 
806.040344 850.454834 822.490173 842.229919 
802.750427 850.454834 822.490173 840.584961 
807.685364 853.744812 822.490173 843.874939 
814.265259 852.099792 824.135132 840.584961 
807.685364 852.099792 822.490173 834.005005 
809.330322 852.099792 820.845215 835.650024 
810.975281 853.744812 822.490173 834.005005 
807.685364 852.099792 822.490173 837.294983 
812.620300 850.454834 822.490173 834.005005 
807.685364 848.809875 820.845215 830.715088 
809.330322 847.164856 820.845215 827.425110 
812.620300 848.809875 820.845215 834.005005 
815.910278 848.809875 819.200195 837.294983 
810.975281 850.454834 822.490173 838.940002 
807.685364 850.454834 819.200195 837.294983 
809.330322 850.454834 819.200195 832.360046 
814.265259 850.454834 817.555237 824.135132 
817.555237 850.454834 815.910278 824.135132 
817.555237 853.744812 819.200195 830.715088 
814.265259 852.099792 820.845215 829.070068 
814.265259 852.099792 822.490173 842.229919 
815.910278 853.744812 822.490173 835.650024 
812.620300 853.744812 824.135132 834.005005 
807.685364 852.099792 822.490173 829.070068 
807.685364 848.809875 822.490173 824.135132 
807.685364 848.809875 824.135132 825.780151 
806.040344 847.164856 820.845215 829.070068 
809.330322 848.809875 820.845215 832.360046 
809.330322 850.454834 820.845215 825.780151 
812.620300 850.454834 820.845215 824.135132 
809.330322 848.809875 820.845215 822.490173 
809.330322 850.454834 820.845215 825.780151 
814.265259 852.099792 822.490173 824.135132 
807.685364 847.164856 822.490173 830.715088 
815.910278 850.454834 820.845215 835.650024 
812.620300 848.809875 822.490173 832.360046 
806.040344 847.164856 817.555237 827.425110 
804.395386 848.809875 817.555237 819.200195 
804.395386 848.809875 819.200195 822.490173 
801.105408 845.519897 819.200195 815.910278 
807.685364 847.164856 820.845215 825.780151 
799.460449 848.809875 817.555237 812.620300 
792.880554 850.454834 820.845215 809.330322 
797.815491 852.099792 817.555237 817.555237 
796.170471 852.099792 817.555237 809.330322 
799.460449 852.099792 817.555237 812.620300 
794.525513 852.099792 815.910278 809.330322 
789.590576 853.744812 817.555237 810.975281 
791.235535 853.744812 819.200195 804.395386 
792.880554 852.099792 819.200195 807.685364 
789.590576 853.744812 820.845215 809.330322 
791.235535 853.744812 822.490173 801.105408 
791.235535 855.389771 817.555237 807.685364 
791.235535 855.389771 819.200195 809.330322 
789.590576 852.099792 819.200195 801.105408 
792.880554 853.744812 815.910278 797.815491 
797.815491 855.389771 819.200195 796.170471 
801.105408 855.389771 820.845215 799.460449 
804.395386 855.389771 819.200195 804.395386 
809.330322 857.034729 817.555237 796.170471 
806.040344 857.034729 819.200195 799.460449 
802.750427 857.034729 819.200195 802.750427 
797.815491 857.034729 822.490173 806.040344 
794.525513 857.034729 822.490173 807.685364 
789.590576 855.389771 824.135132 804.395386 
789.590576 852.099792 822.490173 804.395386 
791.235535 852.099792 822.490173 814.265259 
786.300598 852.099792 822.490173 806.040344 
791.235535 852.099792 820.845215 810.975281 
794.525513 852.099792 822.490173 812.620300 
786.300598 850.454834 822.490173 810.975281 
789.590576 850.454834 822.490173 809.330322 
791.235535 852.099792 819.200195 807.685364 
789.590576 853.744812 819.200195 804.395386 
791.235535 853.744812 819.200195 807.685364 
796.170471 850.454834 819.200195 807.685364 
791.235535 848.809875 822.490173 807.685364 
794.525513 848.809875 822.490173 819.200195 
791.235535 848.809875 824.135132 815.910278 
791.235535 850.454834 824.135132 815.910278 
794.525513 847.164856 820.845215 809.330322 
794.525513 843.874939 824.135132 809.330322 
801.105408 847.164856 822.490173 820.845215 
