830.715088 855.389771 834.005005 845.519897 
829.070068 853.744812 832.360046 857.034729 
830.715088 852.099792 832.360046 852.099792 
825.780151 852.099792 829.070068 845.519897 
829.070068 852.099792 829.070068 843.874939 
822.490173 850.454834 830.715088 847.164856 
825.780151 850.454834 829.070068 848.809875 
824.135132 852.099792 829.070068 845.519897 
825.780151 850.454834 827.425110 838.940002 
827.425110 852.099792 827.425110 840.584961 
822.490173 850.454834 825.780151 842.229919 
824.135132 852.099792 827.425110 838.940002 
817.555237 848.809875 827.425110 837.294983 
822.490173 850.454834 825.780151 832.360046 
824.135132 850.454834 827.425110 837.294983 
819.200195 847.164856 825.780151 830.715088 
817.555237 850.454834 825.780151 835.650024 
815.910278 848.809875 825.780151 837.294983 
814.265259 845.519897 825.780151 840.584961 
819.200195 852.099792 827.425110 842.229919 
822.490173 852.099792 827.425110 842.229919 
819.200195 847.164856 830.715088 847.164856 
824.135132 848.809875 830.715088 850.454834 
824.135132 848.809875 829.070068 853.744812 
822.490173 850.454834 829.070068 847.164856 
824.135132 852.099792 827.425110 848.809875 
825.780151 848.809875 827.425110 848.809875 
825.780151 847.164856 827.425110 842.229919 
819.200195 848.809875 827.425110 835.650024 
819.200195 848.809875 825.780151 838.940002 
820.845215 850.454834 824.135132 837.294983 
819.200195 850.454834 825.780151 843.874939 
824.135132 853.744812 825.780151 842.229919 
820.845215 850.454834 825.780151 838.940002 
820.845215 847.164856 824.135132 842.229919 
822.490173 847.164856 824.135132 832.360046 
810.975281 843.874939 819.200195 830.715088 
812.620300 845.519897 822.490173 832.360046 
815.910278 843.874939 824.135132 835.650024 
822.490173 848.809875 825.780151 847.164856 
825.780151 850.454834 825.780151 843.874939 
824.135132 850.454834 825.780151 838.940002 
820.845215 850.454834 825.780151 842.229919 
819.200195 847.164856 824.135132 840.584961 
820.845215 852.099792 827.425110 842.229919 
817.555237 852.099792 827.425110 842.229919 
822.490173 850.454834 829.070068 845.519897 
824.135132 853.744812 829.070068 842.229919 
824.135132 852.099792 829.070068 835.650024 
820.845215 850.454834 825.780151 835.650024 
822.490173 848.809875 824.135132 832.360046 
822.490173 852.099792 827.425110 843.874939 
824.135132 852.099792 827.425110 840.584961 
825.780151 853.744812 829.070068 840.584961 
824.135132 850.454834 829.070068 847.164856 
829.070068 848.809875 825.780151 845.519897 
825.780151 852.099792 827.425110 837.294983 
819.200195 850.454834 829.070068 834.005005 
814.265259 845.519897 825.780151 829.070068 
810.975281 847.164856 829.070068 832.360046 
819.200195 847.164856 829.070068 845.519897 
824.135132 848.809875 827.425110 838.940002 
820.845215 850.454834 830.715088 843.874939 
824.135132 852.099792 829.070068 840.584961 
822.490173 852.099792 829.070068 843.874939 
827.425110 855.389771 827.425110 842.229919 
825.780151 852.099792 825.780151 847.164856 
822.490173 850.454834 824.135132 847.164856 
824.135132 848.809875 825.780151 848.809875 
827.425110 852.099792 824.135132 842.229919 
829.070068 852.099792 822.490173 842.229919 
832.360046 855.389771 824.135132 843.874939 
829.070068 853.744812 825.780151 842.229919 
830.715088 852.099792 827.425110 842.229919 
832.360046 850.454834 824.135132 838.940002 
830.715088 852.099792 825.780151 838.940002 
829.070068 853.744812 827.425110 842.229919 
827.425110 850.454834 825.780151 845.519897 
827.425110 853.744812 827.425110 840.584961 
829.070068 850.454834 825.780151 838.940002 
825.780151 848.809875 825.780151 843.874939 
824.135132 848.809875 825.780151 835.650024 
825.780151 848.809875 829.070068 838.940002 
820.845215 848.809875 824.135132 832.360046 
820.845215 850.454834 825.780151 834.005005 
827.425110 852.099792 827.425110 837.294983 
822.490173 847.164856 824.135132 840.584961 
819.200195 848.809875 825.780151 832.360046 
829.070068 852.099792 827.425110 834.005005 
824.135132 847.164856 825.780151 832.360046 
819.200195 848.809875 824.135132 834.005005 
825.780151 845.519897 822.490173 840.584961 
824.135132 848.809875 822.490173 837.294983 
824.135132 848.809875 820.845215 837.294983 
827.425110 850.454834 824.135132 837.294983 
827.425110 850.454834 822.490173 837.294983 
822.490173 848.809875 820.845215 837.294983 
824.135132 850.454834 820.845215 840.584961 
824.135132 848.809875 819.200195 837.294983 
814.265259 850.454834 819.200195 830.715088 
817.555237 853.744812 819.200195 834.005005 
824.135132 853.744812 820.845215 838.940002 
824.135132 850.454834 822.490173 847.164856 
830.715088 853.744812 824.135132 838.940002 
824.135132 852.099792 822.490173 837.294983 
825.780151 852.099792 822.490173 837.294983 
825.780151 848.809875 819.200195 835.650024 
824.135132 848.809875 820.845215 840.584961 
827.425110 850.454834 820.845215 835.650024 
820.845215 852.099792 820.845215 837.294983 
822.490173 853.744812 822.490173 838.940002 
824.135132 853.744812 825.780151 835.650024 
825.780151 857.034729 824.135132 838.940002 
822.490173 852.099792 820.845215 832.360046 
817.555237 847.164856 820.845215 834.005005 
812.620300 847.164856 820.845215 837.294983 
814.265259 848.809875 820.845215 825.780151 
825.780151 853.744812 822.490173 830.715088 
830.715088 855.389771 824.135132 830.715088 
832.360046 852.099792 822.490173 832.360046 
835.650024 852.099792 822.490173 835.650024 
830.715088 850.454834 820.845215 838.940002 
840.584961 850.454834 817.555237 837.294983 
840.584961 852.099792 817.555237 827.425110 
838.940002 853.744812 819.200195 827.425110 
827.425110 853.744812 819.200195 832.360046 
814.265259 850.454834 817.555237 834.005005 
822.490173 852.099792 822.490173 842.229919 
819.200195 852.099792 825.780151 850.454834 
817.555237 853.744812 824.135132 842.229919 
819.200195 850.454834 822.490173 835.650024 
814.265259 850.454834 819.200195 834.005005 
814.265259 848.809875 820.845215 834.005005 
819.200195 850.454834 822.490173 838.940002 
812.620300 850.454834 822.490173 842.229919 
814.265259 848.809875 824.135132 837.294983 
810.975281 847.164856 822.490173 840.584961 
819.200195 848.809875 819.200195 835.650024 
810.975281 848.809875 820.845215 834.005005 
809.330322 848.809875 819.200195 835.650024 
815.910278 848.809875 820.845215 837.294983 
810.975281 847.164856 820.845215 838.940002 
814.265259 847.164856 820.845215 842.229919 
814.265259 847.164856 819.200195 835.650024 
807.685364 845.519897 819.200195 829.070068 
814.265259 847.164856 820.845215 835.650024 
812.620300 845.519897 819.200195 832.360046 
810.975281 843.874939 817.555237 834.005005 
812.620300 843.874939 819.200195 837.294983 
812.620300 847.164856 819.200195 835.650024 
812.620300 852.099792 822.490173 837.294983 
810.975281 845.519897 819.200195 832.360046 
809.330322 845.519897 817.555237 827.425110 
812.620300 845.519897 820.845215 832.360046 
815.910278 845.519897 819.200195 840.584961 
819.200195 847.164856 822.490173 835.650024 
822.490173 848.809875 822.490173 843.874939 
822.490173 848.809875 817.555237 840.584961 
825.780151 852.099792 820.845215 837.294983 
827.425110 855.389771 822.490173 843.874939 
827.425110 848.809875 820.845215 835.650024 
822.490173 843.874939 820.845215 837.294983 
830.715088 847.164856 819.200195 835.650024 
820.845215 847.164856 819.200195 843.874939 
825.780151 850.454834 822.490173 842.229919 
822.490173 850.454834 822.490173 838.940002 
819.200195 850.454834 822.490173 840.584961 
827.425110 852.099792 824.135132 845.519897 
827.425110 852.099792 824.135132 845.519897 
827.425110 850.454834 822.490173 838.940002 
825.780151 847.164856 822.490173 837.294983 
820.845215 845.519897 819.200195 835.650024 
822.490173 848.809875 819.200195 838.940002 
822.490173 847.164856 819.200195 843.874939 
825.780151 848.809875 820.845215 838.940002 
825.780151 848.809875 817.555237 829.070068 
829.070068 847.164856 822.490173 834.005005 
827.425110 848.809875 822.490173 837.294983 
822.490173 848.809875 825.780151 838.940002 
824.135132 843.874939 824.135132 847.164856 
825.780151 845.519897 822.490173 845.519897 
827.425110 843.874939 820.845215 847.164856 
824.135132 847.164856 817.555237 838.940002 
819.200195 845.519897 819.200195 830.715088 
822.490173 843.874939 820.845215 837.294983 
825.780151 852.099792 825.780151 845.519897 
824.135132 852.099792 824.135132 840.584961 
819.200195 842.229919 822.490173 837.294983 
815.910278 843.874939 820.845215 830.715088 
815.910278 842.229919 822.490173 840.584961 
815.910278 845.519897 822.490173 838.940002 
822.490173 852.099792 824.135132 840.584961 
819.200195 845.519897 822.490173 842.229919 
817.555237 845.519897 822.490173 835.650024 
824.135132 848.809875 827.425110 842.229919 
815.910278 850.454834 820.845215 835.650024 
820.845215 850.454834 824.135132 829.070068 
817.555237 845.519897 820.845215 830.715088 
817.555237 847.164856 822.490173 840.584961 
824.135132 847.164856 825.780151 843.874939 
820.845215 848.809875 825.780151 842.229919 
834.005005 855.389771 825.780151 845.519897 
829.070068 852.099792 819.200195 838.940002 
819.200195 847.164856 820.845215 840.584961 
817.555237 850.454834 819.200195 837.294983 
815.910278 850.454834 819.200195 837.294983 
819.200195 850.454834 824.135132 834.005005 
822.490173 850.454834 824.135132 840.584961 
824.135132 845.519897 817.555237 838.940002 
825.780151 845.519897 820.845215 838.940002 
827.425110 848.809875 822.490173 840.584961 
829.070068 848.809875 820.845215 842.229919 
827.425110 848.809875 819.200195 842.229919 
825.780151 850.454834 820.845215 842.229919 
824.135132 848.809875 820.845215 837.294983 
822.490173 848.809875 822.490173 838.940002 
825.780151 847.164856 822.490173 837.294983 
824.135132 847.164856 819.200195 837.294983 
824.135132 847.164856 819.200195 834.005005 
822.490173 848.809875 817.555237 837.294983 
824.135132 852.099792 822.490173 843.874939 
822.490173 847.164856 819.200195 835.650024 
827.425110 848.809875 822.490173 842.229919 
825.780151 848.809875 822.490173 837.294983 
819.200195 845.519897 817.555237 835.650024 
822.490173 848.809875 819.200195 837.294983 
822.490173 847.164856 825.780151 848.809875 
820.845215 847.164856 822.490173 842.229919 
824.135132 852.099792 820.845215 842.229919 
829.070068 850.454834 822.490173 838.940002 
829.070068 852.099792 820.845215 834.005005 
824.135132 852.099792 822.490173 843.874939 
827.425110 850.454834 822.490173 842.229919 
824.135132 848.809875 820.845215 834.005005 
817.555237 850.454834 820.845215 834.005005 
820.845215 850.454834 824.135132 838.940002 
819.200195 845.519897 822.490173 838.940002 
817.555237 847.164856 819.200195 842.229919 
814.265259 845.519897 824.135132 830.715088 
817.555237 850.454834 822.490173 832.360046 
814.265259 847.164856 820.845215 832.360046 
810.975281 845.519897 824.135132 834.005005 
815.910278 850.454834 820.845215 832.360046 
819.200195 853.744812 824.135132 835.650024 
822.490173 850.454834 822.490173 838.940002 
827.425110 850.454834 824.135132 842.229919 
817.555237 843.874939 822.490173 834.005005 
817.555237 845.519897 822.490173 834.005005 
817.555237 848.809875 824.135132 837.294983 
815.910278 848.809875 824.135132 838.940002 
820.845215 848.809875 829.070068 850.454834 
820.845215 850.454834 824.135132 842.229919 
822.490173 852.099792 822.490173 840.584961 
814.265259 845.519897 822.490173 838.940002 
814.265259 848.809875 824.135132 837.294983 
817.555237 852.099792 825.780151 840.584961 
809.330322 847.164856 822.490173 834.005005 
806.040344 847.164856 820.845215 832.360046 
804.395386 845.519897 814.265259 827.425110 
809.330322 848.809875 817.555237 827.425110 
822.490173 847.164856 820.845215 829.070068 
815.910278 845.519897 819.200195 832.360046 
814.265259 848.809875 822.490173 832.360046 
810.975281 845.519897 820.845215 830.715088 
812.620300 850.454834 820.845215 834.005005 
809.330322 850.454834 819.200195 834.005005 
812.620300 850.454834 819.200195 830.715088 
814.265259 848.809875 819.200195 830.715088 
822.490173 850.454834 820.845215 829.070068 
824.135132 852.099792 820.845215 830.715088 
819.200195 845.519897 822.490173 832.360046 
815.910278 848.809875 822.490173 834.005005 
819.200195 848.809875 822.490173 837.294983 
822.490173 852.099792 822.490173 837.294983 
827.425110 850.454834 824.135132 840.584961 
825.780151 852.099792 820.845215 837.294983 
814.265259 852.099792 822.490173 837.294983 
812.620300 852.099792 819.200195 834.005005 
815.910278 855.389771 819.200195 830.715088 
817.555237 852.099792 819.200195 838.940002 
820.845215 853.744812 819.200195 829.070068 
815.910278 853.744812 819.200195 830.715088 
815.910278 855.389771 819.200195 840.584961 
815.910278 853.744812 817.555237 843.874939 
815.910278 852.099792 820.845215 843.874939 
814.265259 847.164856 817.555237 835.650024 
815.910278 850.454834 815.910278 835.650024 
809.330322 848.809875 817.555237 832.360046 
810.975281 847.164856 815.910278 837.294983 
810.975281 850.454834 817.555237 835.650024 
806.040344 850.454834 819.200195 830.715088 
810.975281 852.099792 819.200195 829.070068 
810.975281 847.164856 815.910278 834.005005 
812.620300 848.809875 817.555237 829.070068 
817.555237 845.519897 819.200195 835.650024 
817.555237 845.519897 819.200195 837.294983 
817.555237 850.454834 820.845215 834.005005 
815.910278 847.164856 819.200195 840.584961 
810.975281 847.164856 817.555237 837.294983 
815.910278 847.164856 820.845215 840.584961 
817.555237 847.164856 822.490173 837.294983 
819.200195 845.519897 822.490173 837.294983 
817.555237 845.519897 820.845215 837.294983 
815.910278 845.519897 822.490173 840.584961 
814.265259 843.874939 822.490173 837.294983 
819.200195 847.164856 824.135132 843.874939 
819.200195 847.164856 820.845215 837.294983 
824.135132 848.809875 820.845215 837.294983 
817.555237 847.164856 819.200195 840.584961 
819.200195 848.809875 820.845215 837.294983 
820.845215 848.809875 824.135132 847.164856 
820.845215 847.164856 825.780151 840.584961 
820.845215 847.164856 822.490173 832.360046 
824.135132 843.874939 822.490173 834.005005 
820.845215 845.519897 820.845215 837.294983 
825.780151 848.809875 822.490173 837.294983 
825.780151 848.809875 822.490173 830.715088 
820.845215 850.454834 822.490173 834.005005 
820.845215 848.809875 822.490173 834.005005 
819.200195 847.164856 819.200195 834.005005 
822.490173 848.809875 819.200195 834.005005 
827.425110 847.164856 822.490173 837.294983 
822.490173 850.454834 822.490173 837.294983 
824.135132 855.389771 822.490173 835.650024 
824.135132 848.809875 824.135132 830.715088 
822.490173 843.874939 822.490173 832.360046 
827.425110 848.809875 822.490173 837.294983 
827.425110 845.519897 825.780151 837.294983 
825.780151 847.164856 820.845215 832.360046 
829.070068 852.099792 824.135132 830.715088 
822.490173 850.454834 824.135132 827.425110 
822.490173 852.099792 824.135132 830.715088 
819.200195 848.809875 820.845215 824.135132 
815.910278 845.519897 819.200195 825.780151 
820.845215 848.809875 820.845215 832.360046 
825.780151 852.099792 824.135132 832.360046 
825.780151 852.099792 822.490173 840.584961 
827.425110 850.454834 822.490173 838.940002 
824.135132 848.809875 820.845215 840.584961 
815.910278 847.164856 819.200195 835.650024 
817.555237 847.164856 817.555237 837.294983 
820.845215 848.809875 819.200195 832.360046 
820.845215 847.164856 817.555237 832.360046 
822.490173 847.164856 815.910278 830.715088 
822.490173 842.229919 810.975281 822.490173 
830.715088 842.229919 814.265259 824.135132 
834.005005 845.519897 812.620300 819.200195 
837.294983 843.874939 809.330322 820.845215 
838.940002 843.874939 812.620300 820.845215 
837.294983 842.229919 807.685364 819.200195 
829.070068 840.584961 807.685364 820.845215 
822.490173 838.940002 810.975281 825.780151 
819.200195 838.940002 807.685364 829.070068 
812.620300 837.294983 807.685364 829.070068 
812.620300 840.584961 810.975281 829.070068 
801.105408 832.360046 807.685364 822.490173 
802.750427 835.650024 807.685364 820.845215 
809.330322 835.650024 809.330322 829.070068 
806.040344 832.360046 809.330322 824.135132 
810.975281 834.005005 809.330322 822.490173 
809.330322 830.715088 807.685364 824.135132 
809.330322 832.360046 806.040344 819.200195 
812.620300 837.294983 804.395386 820.845215 
807.685364 834.005005 804.395386 820.845215 
807.685364 834.005005 807.685364 820.845215 
809.330322 834.005005 807.685364 825.780151 
809.330322 835.650024 807.685364 827.425110 
810.975281 838.940002 809.330322 827.425110 
809.330322 837.294983 807.685364 824.135132 
812.620300 835.650024 806.040344 814.265259 
812.620300 837.294983 806.040344 820.845215 
807.685364 832.360046 806.040344 815.910278 
804.395386 830.715088 807.685364 822.490173 
807.685364 834.005005 809.330322 822.490173 
812.620300 835.650024 809.330322 824.135132 
810.975281 832.360046 804.395386 822.490173 
807.685364 834.005005 806.040344 812.620300 
802.750427 832.360046 804.395386 810.975281 
797.815491 832.360046 802.750427 812.620300 
801.105408 835.650024 806.040344 815.910278 
802.750427 834.005005 804.395386 814.265259 
807.685364 834.005005 807.685364 820.845215 
806.040344 835.650024 802.750427 814.265259 
807.685364 835.650024 806.040344 817.555237 
809.330322 837.294983 809.330322 830.715088 
804.395386 832.360046 804.395386 814.265259 
810.975281 834.005005 807.685364 820.845215 
812.620300 835.650024 809.330322 824.135132 
812.620300 834.005005 806.040344 820.845215 
810.975281 838.940002 806.040344 822.490173 
807.685364 835.650024 807.685364 817.555237 
804.395386 832.360046 804.395386 819.200195 
809.330322 835.650024 807.685364 817.555237 
809.330322 835.650024 809.330322 824.135132 
806.040344 835.650024 807.685364 820.845215 
809.330322 837.294983 807.685364 810.975281 
802.750427 835.650024 806.040344 819.200195 
806.040344 835.650024 806.040344 817.555237 
809.330322 837.294983 804.395386 820.845215 
801.105408 835.650024 804.395386 817.555237 
810.975281 843.874939 807.685364 819.200195 
807.685364 840.584961 806.040344 820.845215 
810.975281 837.294983 804.395386 820.845215 
814.265259 835.650024 809.330322 822.490173 
806.040344 834.005005 804.395386 812.620300 
814.265259 837.294983 809.330322 815.910278 
812.620300 842.229919 807.685364 822.490173 
810.975281 840.584961 809.330322 815.910278 
815.910278 837.294983 809.330322 820.845215 
814.265259 837.294983 806.040344 814.265259 
810.975281 835.650024 806.040344 815.910278 
809.330322 835.650024 806.040344 819.200195 
802.750427 832.360046 806.040344 815.910278 
809.330322 835.650024 807.685364 820.845215 
810.975281 837.294983 806.040344 820.845215 
817.555237 840.584961 807.685364 824.135132 
809.330322 842.229919 809.330322 822.490173 
807.685364 838.940002 809.330322 824.135132 
810.975281 838.940002 807.685364 827.425110 
814.265259 838.940002 809.330322 824.135132 
809.330322 835.650024 809.330322 819.200195 
806.040344 837.294983 807.685364 817.555237 
809.330322 838.940002 809.330322 819.200195 
806.040344 842.229919 806.040344 822.490173 
809.330322 842.229919 807.685364 824.135132 
806.040344 838.940002 809.330322 819.200195 
804.395386 835.650024 807.685364 824.135132 
804.395386 837.294983 807.685364 824.135132 
804.395386 837.294983 806.040344 827.425110 
806.040344 837.294983 809.330322 827.425110 
806.040344 840.584961 809.330322 820.845215 
810.975281 840.584961 809.330322 830.715088 
810.975281 838.940002 810.975281 829.070068 
807.685364 838.940002 810.975281 827.425110 
806.040344 835.650024 812.620300 830.715088 
802.750427 834.005005 810.975281 824.135132 
804.395386 837.294983 810.975281 825.780151 
810.975281 842.229919 812.620300 829.070068 
809.330322 838.940002 814.265259 832.360046 
810.975281 840.584961 812.620300 824.135132 
814.265259 840.584961 814.265259 824.135132 
815.910278 842.229919 815.910278 832.360046 
815.910278 842.229919 815.910278 832.360046 
814.265259 840.584961 815.910278 830.715088 
807.685364 835.650024 810.975281 827.425110 
809.330322 835.650024 812.620300 825.780151 
815.910278 838.940002 814.265259 829.070068 
815.910278 840.584961 814.265259 834.005005 
819.200195 838.940002 815.910278 830.715088 
814.265259 835.650024 810.975281 824.135132 
817.555237 837.294983 810.975281 825.780151 
814.265259 838.940002 809.330322 829.070068 
809.330322 840.584961 807.685364 824.135132 
812.620300 842.229919 810.975281 822.490173 
806.040344 837.294983 810.975281 825.780151 
804.395386 835.650024 809.330322 824.135132 
809.330322 837.294983 810.975281 827.425110 
802.750427 834.005005 812.620300 822.490173 
806.040344 837.294983 812.620300 822.490173 
806.040344 842.229919 815.910278 829.070068 
804.395386 837.294983 807.685364 820.845215 
810.975281 838.940002 810.975281 830.715088 
812.620300 840.584961 809.330322 827.425110 
810.975281 838.940002 814.265259 832.360046 
810.975281 840.584961 814.265259 834.005005 
807.685364 840.584961 812.620300 830.715088 
814.265259 843.874939 814.265259 832.360046 
810.975281 845.519897 814.265259 829.070068 
809.330322 843.874939 815.910278 829.070068 
807.685364 840.584961 810.975281 825.780151 
814.265259 843.874939 810.975281 824.135132 
814.265259 840.584961 812.620300 827.425110 
815.910278 845.519897 814.265259 830.715088 
815.910278 847.164856 814.265259 829.070068 
817.555237 847.164856 815.910278 834.005005 
812.620300 843.874939 815.910278 835.650024 
809.330322 842.229919 810.975281 824.135132 
810.975281 840.584961 814.265259 825.780151 
802.750427 837.294983 810.975281 817.555237 
810.975281 845.519897 814.265259 822.490173 
806.040344 840.584961 814.265259 824.135132 
810.975281 842.229919 815.910278 822.490173 
809.330322 843.874939 814.265259 827.425110 
807.685364 838.940002 812.620300 827.425110 
809.330322 842.229919 812.620300 825.780151 
810.975281 838.940002 810.975281 820.845215 
810.975281 843.874939 814.265259 822.490173 
810.975281 842.229919 815.910278 822.490173 
804.395386 835.650024 817.555237 822.490173 
809.330322 837.294983 815.910278 829.070068 
815.910278 837.294983 812.620300 820.845215 
807.685364 837.294983 812.620300 817.555237 
801.105408 838.940002 810.975281 819.200195 
797.815491 835.650024 810.975281 817.555237 
807.685364 838.940002 815.910278 825.780151 
807.685364 840.584961 812.620300 825.780151 
806.040344 840.584961 815.910278 830.715088 
807.685364 835.650024 815.910278 829.070068 
804.395386 835.650024 809.330322 824.135132 
812.620300 835.650024 812.620300 832.360046 
809.330322 837.294983 810.975281 822.490173 
812.620300 840.584961 815.910278 824.135132 
812.620300 838.940002 814.265259 829.070068 
809.330322 842.229919 815.910278 825.780151 
814.265259 838.940002 812.620300 824.135132 
810.975281 837.294983 809.330322 829.070068 
815.910278 840.584961 812.620300 825.780151 
815.910278 840.584961 810.975281 827.425110 
812.620300 845.519897 814.265259 822.490173 
814.265259 842.229919 814.265259 824.135132 
815.910278 838.940002 817.555237 822.490173 
815.910278 840.584961 814.265259 827.425110 
812.620300 842.229919 814.265259 825.780151 
810.975281 840.584961 815.910278 825.780151 
815.910278 843.874939 817.555237 827.425110 
817.555237 842.229919 817.555237 829.070068 
820.845215 840.584961 819.200195 834.005005 
815.910278 842.229919 815.910278 834.005005 
817.555237 845.519897 817.555237 832.360046 
824.135132 847.164856 815.910278 825.780151 
815.910278 847.164856 815.910278 824.135132 
819.200195 842.229919 815.910278 825.780151 
815.910278 842.229919 810.975281 825.780151 
815.910278 840.584961 815.910278 829.070068 
820.845215 843.874939 815.910278 824.135132 
820.845215 842.229919 814.265259 825.780151 
819.200195 840.584961 814.265259 830.715088 
817.555237 845.519897 814.265259 832.360046 
822.490173 848.809875 817.555237 835.650024 
819.200195 845.519897 815.910278 837.294983 
817.555237 840.584961 812.620300 830.715088 
819.200195 840.584961 817.555237 834.005005 
822.490173 847.164856 817.555237 834.005005 
815.910278 847.164856 817.555237 832.360046 
815.910278 850.454834 820.845215 837.294983 
819.200195 847.164856 819.200195 837.294983 
819.200195 843.874939 815.910278 829.070068 
817.555237 843.874939 819.200195 829.070068 
810.975281 840.584961 814.265259 824.135132 
815.910278 842.229919 812.620300 829.070068 
822.490173 843.874939 815.910278 834.005005 
832.360046 850.454834 820.845215 842.229919 
815.910278 847.164856 817.555237 830.715088 
814.265259 838.940002 820.845215 832.360046 
812.620300 843.874939 822.490173 830.715088 
812.620300 842.229919 819.200195 822.490173 
819.200195 847.164856 817.555237 830.715088 
819.200195 847.164856 819.200195 832.360046 
814.265259 845.519897 815.910278 822.490173 
807.685364 847.164856 817.555237 830.715088 
812.620300 845.519897 819.200195 830.715088 
807.685364 842.229919 815.910278 824.135132 
814.265259 842.229919 815.910278 830.715088 
819.200195 845.519897 817.555237 827.425110 
809.330322 842.229919 815.910278 830.715088 
812.620300 845.519897 814.265259 830.715088 
820.845215 843.874939 812.620300 829.070068 
817.555237 843.874939 812.620300 824.135132 
812.620300 847.164856 812.620300 819.200195 
815.910278 845.519897 810.975281 817.555237 
827.425110 845.519897 812.620300 819.200195 
832.360046 848.809875 814.265259 824.135132 
832.360046 845.519897 812.620300 819.200195 
829.070068 847.164856 812.620300 827.425110 
820.845215 845.519897 812.620300 824.135132 
814.265259 843.874939 809.330322 824.135132 
806.040344 843.874939 810.975281 830.715088 
804.395386 845.519897 812.620300 827.425110 
806.040344 847.164856 817.555237 829.070068 
806.040344 848.809875 817.555237 827.425110 
809.330322 847.164856 817.555237 827.425110 
807.685364 847.164856 817.555237 832.360046 
807.685364 843.874939 812.620300 829.070068 
814.265259 845.519897 814.265259 825.780151 
812.620300 845.519897 819.200195 829.070068 
807.685364 843.874939 817.555237 825.780151 
814.265259 847.164856 819.200195 830.715088 
817.555237 843.874939 820.845215 835.650024 
819.200195 845.519897 819.200195 834.005005 
817.555237 843.874939 817.555237 827.425110 
814.265259 842.229919 815.910278 830.715088 
814.265259 845.519897 815.910278 830.715088 
807.685364 843.874939 815.910278 832.360046 
809.330322 845.519897 815.910278 837.294983 
817.555237 848.809875 817.555237 835.650024 
814.265259 847.164856 814.265259 825.780151 
812.620300 843.874939 812.620300 825.780151 
812.620300 845.519897 812.620300 830.715088 
809.330322 845.519897 814.265259 827.425110 
815.910278 845.519897 815.910278 827.425110 
810.975281 847.164856 814.265259 824.135132 
810.975281 847.164856 820.845215 827.425110 
809.330322 843.874939 819.200195 829.070068 
810.975281 842.229919 815.910278 832.360046 
814.265259 843.874939 814.265259 834.005005 
814.265259 845.519897 815.910278 830.715088 
819.200195 847.164856 817.555237 837.294983 
817.555237 847.164856 815.910278 829.070068 
824.135132 847.164856 819.200195 832.360046 
814.265259 845.519897 815.910278 827.425110 
