837.294983 852.099792 814.265259 838.940002 
845.519897 857.034729 814.265259 845.519897 
847.164856 857.034729 815.910278 843.874939 
838.940002 853.744812 812.620300 845.519897 
843.874939 852.099792 812.620300 843.874939 
842.229919 850.454834 814.265259 838.940002 
843.874939 850.454834 812.620300 835.650024 
842.229919 853.744812 815.910278 842.229919 
827.425110 852.099792 814.265259 838.940002 
829.070068 850.454834 814.265259 837.294983 
835.650024 852.099792 815.910278 842.229919 
837.294983 852.099792 815.910278 842.229919 
825.780151 848.809875 815.910278 842.229919 
822.490173 850.454834 815.910278 842.229919 
824.135132 850.454834 815.910278 840.584961 
832.360046 848.809875 815.910278 832.360046 
837.294983 852.099792 812.620300 834.005005 
834.005005 853.744812 814.265259 838.940002 
832.360046 853.744812 815.910278 830.715088 
838.940002 853.744812 812.620300 834.005005 
834.005005 853.744812 815.910278 843.874939 
825.780151 852.099792 809.330322 842.229919 
837.294983 853.744812 810.975281 840.584961 
835.650024 852.099792 810.975281 838.940002 
838.940002 850.454834 810.975281 834.005005 
835.650024 852.099792 814.265259 840.584961 
824.135132 852.099792 814.265259 842.229919 
825.780151 852.099792 814.265259 843.874939 
835.650024 852.099792 814.265259 840.584961 
838.940002 852.099792 810.975281 838.940002 
835.650024 853.744812 814.265259 840.584961 
824.135132 850.454834 809.330322 837.294983 
827.425110 848.809875 809.330322 837.294983 
834.005005 850.454834 812.620300 837.294983 
838.940002 850.454834 810.975281 838.940002 
850.454834 853.744812 810.975281 832.360046 
840.584961 852.099792 812.620300 834.005005 
835.650024 852.099792 809.330322 832.360046 
829.070068 850.454834 810.975281 840.584961 
819.200195 850.454834 809.330322 837.294983 
827.425110 852.099792 809.330322 835.650024 
827.425110 850.454834 810.975281 835.650024 
834.005005 850.454834 812.620300 835.650024 
835.650024 848.809875 809.330322 842.229919 
829.070068 852.099792 806.040344 835.650024 
822.490173 852.099792 809.330322 834.005005 
830.715088 852.099792 810.975281 834.005005 
832.360046 852.099792 812.620300 834.005005 
830.715088 850.454834 810.975281 837.294983 
829.070068 848.809875 809.330322 835.650024 
830.715088 850.454834 809.330322 834.005005 
830.715088 848.809875 812.620300 835.650024 
827.425110 848.809875 812.620300 835.650024 
824.135132 852.099792 812.620300 829.070068 
824.135132 850.454834 812.620300 832.360046 
825.780151 852.099792 815.910278 838.940002 
830.715088 852.099792 810.975281 837.294983 
832.360046 850.454834 812.620300 840.584961 
829.070068 850.454834 812.620300 835.650024 
832.360046 852.099792 812.620300 827.425110 
834.005005 852.099792 814.265259 837.294983 
832.360046 852.099792 814.265259 840.584961 
835.650024 853.744812 812.620300 837.294983 
835.650024 850.454834 810.975281 835.650024 
832.360046 848.809875 815.910278 835.650024 
825.780151 847.164856 815.910278 835.650024 
820.845215 847.164856 815.910278 837.294983 
829.070068 847.164856 820.845215 845.519897 
832.360046 847.164856 817.555237 842.229919 
834.005005 847.164856 815.910278 837.294983 
832.360046 848.809875 819.200195 835.650024 
829.070068 850.454834 815.910278 835.650024 
817.555237 847.164856 819.200195 834.005005 
814.265259 845.519897 819.200195 837.294983 
827.425110 847.164856 817.555237 838.940002 
825.780151 847.164856 815.910278 835.650024 
830.715088 845.519897 814.265259 834.005005 
827.425110 845.519897 819.200195 843.874939 
820.845215 845.519897 819.200195 837.294983 
822.490173 845.519897 819.200195 843.874939 
825.780151 845.519897 819.200195 842.229919 
830.715088 847.164856 817.555237 840.584961 
832.360046 847.164856 817.555237 845.519897 
838.940002 848.809875 817.555237 842.229919 
832.360046 848.809875 817.555237 843.874939 
835.650024 847.164856 817.555237 840.584961 
832.360046 845.519897 817.555237 835.650024 
830.715088 845.519897 817.555237 837.294983 
827.425110 847.164856 817.555237 843.874939 
829.070068 847.164856 817.555237 838.940002 
832.360046 847.164856 814.265259 838.940002 
824.135132 843.874939 810.975281 834.005005 
832.360046 847.164856 810.975281 834.005005 
834.005005 850.454834 812.620300 838.940002 
834.005005 850.454834 812.620300 837.294983 
838.940002 850.454834 814.265259 835.650024 
825.780151 845.519897 814.265259 834.005005 
824.135132 845.519897 812.620300 837.294983 
825.780151 845.519897 814.265259 837.294983 
829.070068 843.874939 814.265259 837.294983 
834.005005 842.229919 815.910278 837.294983 
834.005005 842.229919 817.555237 843.874939 
825.780151 843.874939 820.845215 842.229919 
817.555237 845.519897 817.555237 840.584961 
819.200195 847.164856 817.555237 840.584961 
820.845215 845.519897 815.910278 843.874939 
829.070068 845.519897 815.910278 843.874939 
832.360046 847.164856 817.555237 837.294983 
827.425110 847.164856 814.265259 830.715088 
832.360046 847.164856 815.910278 832.360046 
829.070068 847.164856 817.555237 837.294983 
824.135132 847.164856 817.555237 840.584961 
829.070068 848.809875 817.555237 837.294983 
822.490173 842.229919 815.910278 837.294983 
824.135132 843.874939 812.620300 840.584961 
827.425110 842.229919 817.555237 835.650024 
825.780151 843.874939 817.555237 834.005005 
827.425110 845.519897 817.555237 829.070068 
827.425110 845.519897 815.910278 838.940002 
822.490173 843.874939 817.555237 838.940002 
825.780151 847.164856 820.845215 840.584961 
820.845215 847.164856 819.200195 832.360046 
825.780151 845.519897 820.845215 834.005005 
832.360046 847.164856 817.555237 840.584961 
834.005005 847.164856 819.200195 847.164856 
830.715088 847.164856 817.555237 843.874939 
827.425110 847.164856 817.555237 835.650024 
834.005005 847.164856 819.200195 837.294983 
845.519897 845.519897 819.200195 835.650024 
855.389771 847.164856 820.845215 838.940002 
855.389771 845.519897 817.555237 838.940002 
842.229919 843.874939 820.845215 838.940002 
832.360046 843.874939 819.200195 837.294983 
825.780151 842.229919 820.845215 843.874939 
812.620300 840.584961 820.845215 840.584961 
819.200195 840.584961 819.200195 843.874939 
822.490173 842.229919 820.845215 837.294983 
814.265259 842.229919 819.200195 827.425110 
812.620300 843.874939 817.555237 835.650024 
817.555237 842.229919 817.555237 832.360046 
815.910278 842.229919 819.200195 838.940002 
817.555237 843.874939 815.910278 832.360046 
824.135132 842.229919 815.910278 830.715088 
814.265259 842.229919 815.910278 834.005005 
819.200195 843.874939 815.910278 838.940002 
820.845215 842.229919 817.555237 835.650024 
820.845215 845.519897 817.555237 837.294983 
829.070068 843.874939 814.265259 838.940002 
822.490173 840.584961 814.265259 832.360046 
822.490173 842.229919 812.620300 834.005005 
830.715088 842.229919 814.265259 835.650024 
829.070068 842.229919 815.910278 835.650024 
822.490173 842.229919 817.555237 840.584961 
825.780151 843.874939 817.555237 837.294983 
827.425110 842.229919 819.200195 832.360046 
815.910278 842.229919 817.555237 835.650024 
817.555237 842.229919 815.910278 837.294983 
820.845215 845.519897 815.910278 835.650024 
814.265259 842.229919 814.265259 835.650024 
824.135132 842.229919 815.910278 837.294983 
830.715088 843.874939 817.555237 842.229919 
829.070068 843.874939 817.555237 840.584961 
837.294983 843.874939 817.555237 845.519897 
840.584961 845.519897 819.200195 842.229919 
827.425110 842.229919 817.555237 835.650024 
824.135132 843.874939 817.555237 835.650024 
820.845215 843.874939 817.555237 830.715088 
824.135132 842.229919 817.555237 832.360046 
820.845215 840.584961 817.555237 830.715088 
827.425110 840.584961 819.200195 834.005005 
834.005005 843.874939 815.910278 832.360046 
832.360046 845.519897 815.910278 835.650024 
832.360046 845.519897 815.910278 837.294983 
835.650024 845.519897 817.555237 835.650024 
829.070068 842.229919 815.910278 837.294983 
824.135132 842.229919 814.265259 840.584961 
830.715088 843.874939 812.620300 845.519897 
832.360046 842.229919 814.265259 842.229919 
838.940002 843.874939 817.555237 842.229919 
838.940002 842.229919 815.910278 837.294983 
825.780151 842.229919 814.265259 832.360046 
827.425110 845.519897 812.620300 834.005005 
829.070068 843.874939 815.910278 834.005005 
829.070068 842.229919 817.555237 835.650024 
830.715088 843.874939 814.265259 832.360046 
830.715088 845.519897 814.265259 829.070068 
834.005005 847.164856 812.620300 832.360046 
829.070068 845.519897 812.620300 822.490173 
830.715088 845.519897 814.265259 829.070068 
827.425110 842.229919 815.910278 830.715088 
832.360046 845.519897 817.555237 825.780151 
834.005005 847.164856 819.200195 830.715088 
829.070068 845.519897 815.910278 829.070068 
829.070068 847.164856 815.910278 835.650024 
832.360046 848.809875 817.555237 842.229919 
837.294983 848.809875 819.200195 843.874939 
830.715088 847.164856 815.910278 842.229919 
829.070068 847.164856 812.620300 837.294983 
815.910278 847.164856 812.620300 830.715088 
817.555237 847.164856 817.555237 842.229919 
825.780151 847.164856 817.555237 842.229919 
827.425110 848.809875 817.555237 838.940002 
827.425110 848.809875 815.910278 845.519897 
827.425110 848.809875 814.265259 834.005005 
825.780151 848.809875 815.910278 834.005005 
817.555237 847.164856 815.910278 838.940002 
819.200195 845.519897 815.910278 834.005005 
819.200195 847.164856 815.910278 832.360046 
822.490173 848.809875 815.910278 827.425110 
827.425110 845.519897 815.910278 829.070068 
820.845215 845.519897 817.555237 832.360046 
822.490173 848.809875 815.910278 830.715088 
829.070068 847.164856 815.910278 840.584961 
825.780151 847.164856 815.910278 840.584961 
825.780151 847.164856 815.910278 838.940002 
819.200195 847.164856 814.265259 840.584961 
827.425110 848.809875 815.910278 840.584961 
827.425110 850.454834 814.265259 838.940002 
827.425110 845.519897 815.910278 837.294983 
830.715088 843.874939 817.555237 838.940002 
834.005005 843.874939 817.555237 835.650024 
835.650024 845.519897 817.555237 835.650024 
820.845215 847.164856 817.555237 845.519897 
815.910278 843.874939 815.910278 840.584961 
822.490173 845.519897 817.555237 842.229919 
829.070068 847.164856 815.910278 840.584961 
824.135132 842.229919 815.910278 834.005005 
819.200195 843.874939 814.265259 832.360046 
825.780151 843.874939 812.620300 830.715088 
827.425110 842.229919 814.265259 832.360046 
820.845215 847.164856 814.265259 834.005005 
824.135132 847.164856 814.265259 829.070068 
824.135132 843.874939 815.910278 827.425110 
827.425110 845.519897 815.910278 829.070068 
837.294983 847.164856 815.910278 835.650024 
822.490173 845.519897 815.910278 832.360046 
820.845215 845.519897 817.555237 835.650024 
830.715088 843.874939 817.555237 837.294983 
824.135132 843.874939 817.555237 840.584961 
827.425110 847.164856 815.910278 843.874939 
835.650024 848.809875 815.910278 842.229919 
832.360046 850.454834 817.555237 838.940002 
835.650024 845.519897 817.555237 838.940002 
834.005005 847.164856 815.910278 842.229919 
830.715088 848.809875 814.265259 838.940002 
825.780151 843.874939 815.910278 838.940002 
825.780151 845.519897 817.555237 838.940002 
822.490173 843.874939 817.555237 835.650024 
827.425110 843.874939 814.265259 834.005005 
832.360046 847.164856 815.910278 837.294983 
832.360046 847.164856 815.910278 837.294983 
819.200195 842.229919 814.265259 835.650024 
825.780151 840.584961 817.555237 837.294983 
817.555237 842.229919 815.910278 832.360046 
819.200195 843.874939 815.910278 835.650024 
819.200195 843.874939 815.910278 838.940002 
824.135132 845.519897 817.555237 838.940002 
832.360046 845.519897 815.910278 842.229919 
835.650024 847.164856 812.620300 842.229919 
837.294983 845.519897 810.975281 837.294983 
835.650024 850.454834 810.975281 840.584961 
838.940002 848.809875 810.975281 838.940002 
830.715088 847.164856 810.975281 835.650024 
829.070068 847.164856 812.620300 843.874939 
825.780151 847.164856 812.620300 835.650024 
825.780151 845.519897 814.265259 838.940002 
837.294983 847.164856 814.265259 842.229919 
835.650024 845.519897 812.620300 835.650024 
827.425110 843.874939 812.620300 838.940002 
829.070068 847.164856 814.265259 834.005005 
827.425110 848.809875 810.975281 834.005005 
834.005005 848.809875 812.620300 837.294983 
835.650024 848.809875 814.265259 838.940002 
834.005005 850.454834 814.265259 837.294983 
830.715088 848.809875 815.910278 830.715088 
832.360046 848.809875 815.910278 829.070068 
834.005005 848.809875 815.910278 835.650024 
824.135132 850.454834 815.910278 837.294983 
830.715088 852.099792 815.910278 834.005005 
832.360046 848.809875 817.555237 838.940002 
834.005005 848.809875 815.910278 840.584961 
835.650024 852.099792 815.910278 837.294983 
835.650024 848.809875 814.265259 837.294983 
837.294983 850.454834 812.620300 830.715088 
832.360046 852.099792 815.910278 838.940002 
835.650024 852.099792 817.555237 843.874939 
834.005005 852.099792 815.910278 840.584961 
838.940002 850.454834 815.910278 845.519897 
843.874939 848.809875 815.910278 840.584961 
834.005005 850.454834 819.200195 842.229919 
829.070068 848.809875 820.845215 840.584961 
832.360046 847.164856 822.490173 837.294983 
834.005005 848.809875 819.200195 837.294983 
834.005005 850.454834 817.555237 835.650024 
834.005005 850.454834 817.555237 835.650024 
830.715088 847.164856 817.555237 832.360046 
830.715088 843.874939 817.555237 834.005005 
834.005005 845.519897 817.555237 838.940002 
824.135132 845.519897 817.555237 840.584961 
834.005005 848.809875 815.910278 837.294983 
837.294983 847.164856 814.265259 838.940002 
829.070068 847.164856 817.555237 838.940002 
824.135132 847.164856 815.910278 837.294983 
830.715088 843.874939 814.265259 843.874939 
829.070068 848.809875 815.910278 847.164856 
835.650024 848.809875 817.555237 850.454834 
842.229919 847.164856 817.555237 847.164856 
838.940002 850.454834 817.555237 845.519897 
837.294983 848.809875 817.555237 843.874939 
834.005005 847.164856 817.555237 843.874939 
835.650024 850.454834 819.200195 848.809875 
832.360046 850.454834 819.200195 845.519897 
842.229919 852.099792 819.200195 843.874939 
852.099792 853.744812 819.200195 840.584961 
857.034729 852.099792 820.845215 840.584961 
857.034729 850.454834 817.555237 838.940002 
847.164856 850.454834 819.200195 843.874939 
832.360046 850.454834 817.555237 842.229919 
832.360046 847.164856 817.555237 842.229919 
829.070068 847.164856 819.200195 847.164856 
830.715088 848.809875 819.200195 847.164856 
827.425110 847.164856 820.845215 845.519897 
827.425110 848.809875 819.200195 847.164856 
835.650024 847.164856 814.265259 843.874939 
837.294983 847.164856 814.265259 843.874939 
840.584961 848.809875 815.910278 843.874939 
842.229919 847.164856 817.555237 843.874939 
842.229919 847.164856 819.200195 848.809875 
832.360046 845.519897 820.845215 847.164856 
829.070068 845.519897 817.555237 852.099792 
827.425110 847.164856 817.555237 847.164856 
837.294983 845.519897 819.200195 845.519897 
834.005005 845.519897 817.555237 847.164856 
822.490173 845.519897 817.555237 845.519897 
834.005005 848.809875 815.910278 847.164856 
830.715088 848.809875 815.910278 847.164856 
837.294983 848.809875 815.910278 845.519897 
834.005005 848.809875 819.200195 842.229919 
829.070068 848.809875 817.555237 845.519897 
832.360046 847.164856 817.555237 843.874939 
834.005005 845.519897 814.265259 837.294983 
838.940002 847.164856 812.620300 840.584961 
835.650024 845.519897 812.620300 840.584961 
835.650024 847.164856 810.975281 840.584961 
843.874939 847.164856 812.620300 842.229919 
838.940002 845.519897 810.975281 842.229919 
830.715088 847.164856 812.620300 842.229919 
837.294983 850.454834 809.330322 847.164856 
830.715088 848.809875 809.330322 847.164856 
830.715088 848.809875 807.685364 838.940002 
834.005005 847.164856 809.330322 842.229919 
829.070068 847.164856 812.620300 845.519897 
830.715088 850.454834 812.620300 845.519897 
829.070068 848.809875 810.975281 837.294983 
827.425110 845.519897 809.330322 837.294983 
824.135132 842.229919 812.620300 842.229919 
827.425110 842.229919 814.265259 840.584961 
827.425110 843.874939 810.975281 837.294983 
832.360046 847.164856 810.975281 835.650024 
834.005005 847.164856 812.620300 835.650024 
835.650024 847.164856 812.620300 834.005005 
842.229919 848.809875 812.620300 834.005005 
838.940002 847.164856 814.265259 832.360046 
830.715088 847.164856 814.265259 834.005005 
829.070068 845.519897 815.910278 840.584961 
825.780151 847.164856 815.910278 835.650024 
822.490173 845.519897 815.910278 832.360046 
835.650024 847.164856 815.910278 832.360046 
834.005005 847.164856 814.265259 832.360046 
834.005005 845.519897 815.910278 837.294983 
832.360046 843.874939 814.265259 832.360046 
830.715088 847.164856 819.200195 834.005005 
827.425110 845.519897 817.555237 830.715088 
835.650024 847.164856 817.555237 830.715088 
835.650024 847.164856 815.910278 830.715088 
832.360046 847.164856 814.265259 830.715088 
835.650024 850.454834 817.555237 835.650024 
827.425110 850.454834 817.555237 832.360046 
830.715088 848.809875 815.910278 834.005005 
824.135132 848.809875 815.910278 835.650024 
825.780151 848.809875 819.200195 835.650024 
832.360046 848.809875 817.555237 840.584961 
827.425110 847.164856 820.845215 843.874939 
830.715088 847.164856 819.200195 840.584961 
835.650024 850.454834 817.555237 837.294983 
827.425110 848.809875 817.555237 837.294983 
832.360046 848.809875 814.265259 838.940002 
822.490173 847.164856 814.265259 840.584961 
827.425110 848.809875 814.265259 838.940002 
830.715088 848.809875 815.910278 840.584961 
832.360046 848.809875 814.265259 840.584961 
829.070068 847.164856 815.910278 843.874939 
820.845215 845.519897 815.910278 838.940002 
824.135132 845.519897 814.265259 838.940002 
825.780151 848.809875 815.910278 842.229919 
824.135132 847.164856 815.910278 834.005005 
820.845215 847.164856 817.555237 832.360046 
824.135132 847.164856 817.555237 832.360046 
829.070068 848.809875 819.200195 832.360046 
832.360046 848.809875 819.200195 837.294983 
829.070068 848.809875 817.555237 838.940002 
830.715088 850.454834 819.200195 834.005005 
820.845215 848.809875 817.555237 834.005005 
824.135132 847.164856 817.555237 834.005005 
827.425110 848.809875 817.555237 837.294983 
822.490173 848.809875 814.265259 837.294983 
832.360046 848.809875 817.555237 837.294983 
838.940002 853.744812 817.555237 843.874939 
837.294983 850.454834 817.555237 840.584961 
835.650024 848.809875 815.910278 842.229919 
832.360046 848.809875 815.910278 845.519897 
830.715088 847.164856 817.555237 842.229919 
830.715088 843.874939 815.910278 835.650024 
835.650024 848.809875 815.910278 835.650024 
830.715088 847.164856 815.910278 840.584961 
834.005005 850.454834 817.555237 837.294983 
827.425110 848.809875 819.200195 838.940002 
820.845215 847.164856 817.555237 837.294983 
832.360046 847.164856 817.555237 835.650024 
829.070068 850.454834 817.555237 840.584961 
830.715088 853.744812 817.555237 842.229919 
830.715088 850.454834 817.555237 830.715088 
817.555237 848.809875 819.200195 832.360046 
825.780151 847.164856 819.200195 835.650024 
837.294983 850.454834 820.845215 838.940002 
830.715088 852.099792 820.845215 842.229919 
827.425110 848.809875 820.845215 837.294983 
817.555237 848.809875 822.490173 838.940002 
820.845215 848.809875 822.490173 837.294983 
829.070068 848.809875 819.200195 838.940002 
837.294983 853.744812 817.555237 835.650024 
838.940002 848.809875 819.200195 840.584961 
832.360046 848.809875 817.555237 843.874939 
834.005005 850.454834 817.555237 838.940002 
838.940002 850.454834 817.555237 842.229919 
832.360046 850.454834 817.555237 837.294983 
830.715088 850.454834 817.555237 838.940002 
830.715088 850.454834 817.555237 837.294983 
820.845215 850.454834 814.265259 832.360046 
827.425110 850.454834 815.910278 834.005005 
829.070068 848.809875 815.910278 830.715088 
825.780151 847.164856 817.555237 835.650024 
832.360046 848.809875 819.200195 837.294983 
822.490173 847.164856 817.555237 830.715088 
817.555237 848.809875 814.265259 825.780151 
814.265259 847.164856 812.620300 829.070068 
819.200195 847.164856 814.265259 827.425110 
829.070068 848.809875 814.265259 829.070068 
834.005005 850.454834 812.620300 830.715088 
829.070068 848.809875 812.620300 829.070068 
827.425110 848.809875 812.620300 830.715088 
834.005005 848.809875 814.265259 834.005005 
830.715088 850.454834 815.910278 837.294983 
834.005005 850.454834 814.265259 835.650024 
835.650024 848.809875 815.910278 838.940002 
832.360046 848.809875 814.265259 838.940002 
837.294983 850.454834 812.620300 832.360046 
830.715088 852.099792 812.620300 837.294983 
827.425110 853.744812 814.265259 835.650024 
825.780151 852.099792 814.265259 829.070068 
830.715088 852.099792 810.975281 832.360046 
825.780151 853.744812 809.330322 825.780151 
822.490173 852.099792 810.975281 824.135132 
829.070068 853.744812 812.620300 835.650024 
829.070068 857.034729 814.265259 832.360046 
837.294983 857.034729 814.265259 832.360046 
838.940002 853.744812 810.975281 834.005005 
835.650024 857.034729 810.975281 835.650024 
832.360046 855.389771 810.975281 834.005005 
838.940002 857.034729 809.330322 835.650024 
830.715088 860.324707 809.330322 840.584961 
835.650024 857.034729 810.975281 840.584961 
842.229919 855.389771 810.975281 840.584961 
835.650024 857.034729 812.620300 835.650024 
838.940002 858.679749 814.265259 835.650024 
832.360046 857.034729 815.910278 838.940002 
837.294983 857.034729 814.265259 838.940002 
838.940002 855.389771 814.265259 843.874939 
840.584961 855.389771 812.620300 832.360046 
838.940002 857.034729 814.265259 838.940002 
830.715088 858.679749 812.620300 840.584961 
832.360046 857.034729 810.975281 838.940002 
837.294983 855.389771 809.330322 838.940002 
834.005005 853.744812 812.620300 837.294983 
830.715088 853.744812 814.265259 838.940002 
827.425110 853.744812 815.910278 837.294983 
832.360046 853.744812 814.265259 837.294983 
829.070068 853.744812 815.910278 838.940002 
830.715088 853.744812 812.620300 842.229919 
817.555237 853.744812 812.620300 838.940002 
824.135132 855.389771 810.975281 840.584961 
835.650024 857.034729 810.975281 838.940002 
838.940002 858.679749 812.620300 832.360046 
850.454834 858.679749 812.620300 835.650024 
858.679749 860.324707 814.265259 842.229919 
855.389771 858.679749 814.265259 838.940002 
860.324707 860.324707 810.975281 838.940002 
861.969727 860.324707 810.975281 842.229919 
848.809875 858.679749 812.620300 840.584961 
845.519897 855.389771 814.265259 847.164856 
843.874939 852.099792 812.620300 857.034729 
837.294983 852.099792 810.975281 852.099792 
840.584961 853.744812 809.330322 852.099792 
834.005005 857.034729 810.975281 845.519897 
832.360046 857.034729 809.330322 837.294983 
835.650024 857.034729 806.040344 842.229919 
837.294983 858.679749 806.040344 845.519897 
829.070068 857.034729 806.040344 840.584961 
825.780151 855.389771 809.330322 842.229919 
824.135132 857.034729 804.395386 830.715088 
829.070068 857.034729 802.750427 834.005005 
830.715088 858.679749 804.395386 837.294983 
835.650024 857.034729 806.040344 838.940002 
832.360046 855.389771 804.395386 835.650024 
835.650024 855.389771 804.395386 838.940002 
838.940002 858.679749 804.395386 843.874939 
835.650024 857.034729 804.395386 840.584961 
837.294983 857.034729 807.685364 847.164856 
842.229919 857.034729 807.685364 845.519897 
838.940002 857.034729 806.040344 845.519897 
835.650024 857.034729 804.395386 842.229919 
837.294983 858.679749 804.395386 845.519897 
835.650024 855.389771 802.750427 843.874939 
838.940002 853.744812 802.750427 845.519897 
838.940002 853.744812 804.395386 850.454834 
832.360046 853.744812 799.460449 840.584961 
835.650024 855.389771 799.460449 837.294983 
840.584961 858.679749 801.105408 838.940002 
842.229919 857.034729 801.105408 842.229919 
843.874939 860.324707 802.750427 845.519897 
834.005005 858.679749 802.750427 838.940002 
840.584961 857.034729 804.395386 842.229919 
837.294983 857.034729 804.395386 842.229919 
829.070068 855.389771 802.750427 835.650024 
830.715088 853.744812 804.395386 840.584961 
835.650024 857.034729 802.750427 838.940002 
840.584961 858.679749 804.395386 838.940002 
843.874939 861.969727 804.395386 845.519897 
842.229919 858.679749 802.750427 840.584961 
843.874939 857.034729 802.750427 835.650024 
855.389771 857.034729 804.395386 843.874939 
848.809875 857.034729 804.395386 845.519897 
829.070068 857.034729 806.040344 837.294983 
825.780151 855.389771 806.040344 835.650024 
827.425110 855.389771 804.395386 837.294983 
832.360046 857.034729 802.750427 837.294983 
843.874939 858.679749 802.750427 835.650024 
837.294983 855.389771 801.105408 832.360046 
834.005005 855.389771 801.105408 835.650024 
840.584961 855.389771 802.750427 834.005005 
840.584961 857.034729 802.750427 838.940002 
840.584961 857.034729 802.750427 838.940002 
838.940002 855.389771 802.750427 837.294983 
840.584961 855.389771 802.750427 838.940002 
843.874939 855.389771 806.040344 843.874939 
842.229919 855.389771 804.395386 837.294983 
852.099792 857.034729 804.395386 840.584961 
848.809875 857.034729 806.040344 842.229919 
842.229919 855.389771 806.040344 838.940002 
840.584961 853.744812 806.040344 847.164856 
837.294983 852.099792 806.040344 843.874939 
845.519897 855.389771 804.395386 847.164856 
840.584961 852.099792 809.330322 845.519897 
847.164856 850.454834 809.330322 843.874939 
838.940002 850.454834 809.330322 850.454834 
834.005005 850.454834 810.975281 847.164856 
835.650024 852.099792 807.685364 845.519897 
830.715088 848.809875 809.330322 845.519897 
834.005005 848.809875 806.040344 850.454834 
835.650024 847.164856 807.685364 850.454834 
827.425110 843.874939 809.330322 848.809875 
827.425110 843.874939 810.975281 848.809875 
827.425110 843.874939 810.975281 843.874939 
829.070068 842.229919 809.330322 842.229919 
837.294983 845.519897 807.685364 843.874939 
834.005005 845.519897 807.685364 840.584961 
837.294983 843.874939 806.040344 840.584961 
840.584961 847.164856 807.685364 838.940002 
827.425110 845.519897 809.330322 835.650024 
830.715088 845.519897 807.685364 837.294983 
829.070068 843.874939 807.685364 837.294983 
834.005005 845.519897 809.330322 843.874939 
840.584961 847.164856 809.330322 838.940002 
830.715088 847.164856 810.975281 840.584961 
830.715088 848.809875 807.685364 842.229919 
835.650024 847.164856 809.330322 840.584961 
838.940002 847.164856 807.685364 840.584961 
835.650024 847.164856 809.330322 843.874939 
825.780151 842.229919 807.685364 842.229919 
827.425110 843.874939 807.685364 837.294983 
834.005005 847.164856 804.395386 838.940002 
830.715088 847.164856 804.395386 835.650024 
832.360046 847.164856 807.685364 832.360046 
827.425110 843.874939 807.685364 840.584961 
827.425110 843.874939 809.330322 837.294983 
835.650024 850.454834 807.685364 832.360046 
830.715088 847.164856 807.685364 834.005005 
830.715088 845.519897 807.685364 832.360046 
837.294983 847.164856 807.685364 838.940002 
838.940002 848.809875 809.330322 842.229919 
