804.395386 848.809845 824.135162 829.070068 
804.395386 849.632355 824.135162 827.425110 
805.217865 849.632355 825.780151 830.715057 
807.685364 851.277313 824.957642 829.892609 
806.040375 851.277344 823.312653 829.892609 
805.217865 850.454834 823.312653 832.360046 
806.040375 850.454834 821.667664 829.892578 
806.862854 852.099823 825.780151 833.182526 
804.395386 852.099792 825.780121 831.537567 
802.750427 849.632324 822.490173 822.490173 
803.572876 850.454834 824.135132 820.022705 
801.105408 850.454834 822.490173 821.667694 
805.217865 851.277313 824.135132 826.602631 
801.927917 849.632324 822.490173 824.135162 
802.750397 850.454834 823.312653 826.602631 
803.572906 850.454834 824.957642 825.780121 
803.572906 849.632324 825.780151 827.425110 
804.395386 847.987366 825.780121 829.070068 
803.572876 848.809845 823.312653 821.667664 
806.040375 849.632355 822.490173 826.602631 
806.862854 850.454834 824.135162 830.715057 
806.040344 850.454834 824.135132 831.537567 
809.330322 850.454834 824.957642 832.360077 
807.685364 850.454834 826.602600 829.892578 
811.797791 850.454834 825.780151 824.957642 
808.507813 848.809845 824.957642 824.957642 
801.105408 849.632324 824.957642 824.957642 
801.105438 849.632324 824.957642 822.490173 
806.862854 851.277344 828.247589 828.247589 
806.040375 849.632324 826.602631 824.135162 
806.040375 850.454834 826.602631 826.602631 
807.685364 852.099792 825.780121 828.247620 
802.750427 850.454834 824.135162 822.490173 
807.685333 850.454834 824.135162 821.667694 
813.442780 852.099823 822.490173 823.312653 
807.685333 851.277344 823.312653 822.490173 
808.507813 852.922302 824.135132 823.312653 
807.685333 852.922302 824.957642 823.312683 
804.395386 851.277313 824.957642 824.135162 
806.040375 850.454834 824.135162 826.602631 
807.685364 850.454834 824.135162 825.780151 
807.685364 850.454834 824.957642 825.780121 
806.040375 851.277344 824.957642 828.247589 
807.685333 852.099823 824.957642 828.247589 
808.507813 851.277344 824.135132 825.780121 
805.217865 851.277344 824.135132 825.780121 
807.685364 851.277313 822.490173 820.845184 
805.217865 852.099823 823.312683 823.312653 
805.217865 851.277344 824.135162 823.312683 
805.217896 851.277344 822.490173 822.490173 
802.750397 849.632324 824.135162 826.602631 
805.217865 850.454834 822.490173 824.135162 
803.572906 850.454834 823.312683 824.957642 
799.460449 851.277313 824.135162 825.780151 
805.217865 850.454834 823.312683 825.780151 
801.927917 851.277313 824.135162 824.135162 
803.572906 851.277313 824.135162 828.247589 
804.395386 850.454834 824.135132 827.425110 
801.105438 850.454834 823.312653 827.425110 
803.572906 850.454834 823.312653 825.780121 
804.395386 851.277313 823.312653 828.247620 
801.927917 852.099792 823.312683 829.070068 
805.217865 850.454834 821.667664 827.425110 
804.395386 851.277344 821.667694 829.892578 
804.395386 850.454834 821.667694 824.135132 
806.862854 851.277313 821.667694 828.247589 
802.750397 851.277344 823.312653 830.715057 
806.040375 850.454834 821.667694 824.957642 
806.040375 849.632324 820.845184 827.425110 
810.152802 849.632324 821.667694 826.602631 
813.442780 849.632355 821.667694 828.247620 
812.620300 848.809845 821.667694 829.070099 
813.442780 849.632355 821.667694 828.247620 
808.507843 848.809875 821.667694 831.537567 
801.927917 847.987366 820.845215 827.425110 
800.282959 848.809875 820.845215 827.425110 
799.460449 848.809875 822.490173 828.247589 
798.637939 848.809845 821.667694 829.892578 
798.637939 849.632355 822.490173 831.537567 
800.282928 849.632355 823.312653 830.715057 
798.637970 849.632355 823.312653 825.780151 
801.105408 850.454834 820.845184 829.070099 
803.572906 851.277313 820.845215 831.537567 
804.395386 851.277313 822.490173 830.715088 
805.217865 852.099792 822.490173 829.892578 
806.040375 852.099823 824.957642 832.360046 
806.862854 852.099823 824.135132 834.005035 
805.217865 851.277344 822.490173 832.360046 
805.217865 850.454834 824.135162 832.360077 
806.862854 851.277344 824.135162 833.182556 
808.507843 851.277344 823.312683 831.537567 
807.685364 852.099823 824.135132 832.360077 
806.040344 853.744781 822.490173 833.182526 
807.685364 853.744781 822.490173 829.070099 
806.040375 853.744781 821.667664 829.892578 
804.395386 852.922302 820.845184 828.247589 
804.395386 852.922302 820.845184 829.070068 
802.750397 852.099823 820.022705 827.425110 
804.395386 853.744781 822.490173 829.892578 
806.040375 852.922302 821.667694 828.247589 
806.040375 851.277344 824.135132 833.182526 
807.685333 853.744781 824.135162 829.070099 
807.685333 854.567291 823.312653 830.715088 
811.797791 855.389771 822.490173 829.070099 
806.040375 852.922302 822.490173 824.135162 
806.040375 852.922302 824.957642 829.892578 
804.395386 850.454834 820.845215 828.247620 
806.862854 852.099792 823.312653 826.602631 
805.217896 852.099792 823.312683 828.247589 
808.507843 852.099823 824.135162 828.247589 
806.862854 852.922302 824.135132 823.312653 
805.217865 853.744781 824.957642 825.780151 
806.040375 853.744781 822.490173 828.247589 
806.040344 853.744781 824.135162 825.780151 
806.040344 852.922302 823.312683 826.602631 
805.217865 851.277313 823.312653 825.780151 
801.927917 852.099823 823.312653 824.135162 
804.395386 852.922302 824.135162 824.957642 
809.330322 850.454834 824.957642 827.425110 
808.507843 850.454834 823.312653 829.070099 
807.685333 850.454834 823.312683 826.602600 
810.975311 850.454834 824.135162 825.780121 
810.975311 852.099823 824.135162 825.780121 
812.620270 852.922302 824.135132 827.425110 
810.152802 850.454834 824.135132 827.425110 
808.507843 852.922302 823.312653 829.070068 
811.797791 852.922302 823.312683 826.602631 
813.442780 856.212250 823.312653 828.247589 
814.265289 852.099823 823.312683 829.892578 
806.862854 852.099823 822.490173 829.892578 
806.862854 850.454834 821.667664 828.247620 
807.685333 848.809845 820.845184 824.957642 
806.040344 852.099823 820.845184 820.022705 
806.862854 852.099823 822.490173 826.602631 
806.040375 851.277344 821.667694 824.957642 
803.572876 852.922302 821.667664 820.845184 
803.572876 852.099823 824.135162 823.312683 
807.685364 852.099823 822.490173 824.135162 
806.862854 854.567261 824.135162 823.312653 
810.152802 853.744781 825.780121 831.537567 
810.152802 852.922302 823.312653 824.957642 
806.862854 852.099823 824.957642 829.892578 
806.862854 852.099823 822.490173 829.070099 
806.862854 852.922302 821.667664 826.602631 
807.685364 852.099823 823.312683 823.312683 
804.395386 851.277313 821.667694 824.135132 
802.750427 852.099792 822.490173 829.892578 
800.282959 850.454834 820.845184 827.425110 
802.750427 851.277344 821.667694 828.247589 
804.395386 851.277313 821.667694 828.247620 
804.395386 850.454834 822.490173 830.715057 
804.395386 851.277313 822.490173 832.360046 
804.395386 852.099792 821.667694 832.360046 
802.750397 850.454834 821.667694 831.537567 
804.395386 851.277313 821.667694 832.360046 
807.685333 852.099823 822.490173 834.827515 
806.862854 851.277313 824.135162 836.472504 
807.685333 851.277313 824.957642 834.827515 
806.862854 852.099792 823.312653 831.537567 
804.395386 849.632355 824.135132 833.182526 
806.862854 849.632355 824.135132 829.892578 
804.395386 848.809875 822.490173 829.070099 
805.217896 851.277344 823.312653 830.715057 
806.862854 852.099823 824.135162 834.827545 
806.862854 850.454834 823.312653 833.182526 
808.507843 851.277344 821.667694 831.537567 
805.217896 849.632355 823.312653 830.715057 
805.217865 852.099823 823.312653 826.602631 
806.862854 852.099823 824.135162 827.425110 
807.685333 849.632355 824.957642 828.247589 
809.330322 849.632355 823.312653 825.780151 
808.507813 848.809845 823.312653 830.715057 
807.685333 849.632355 823.312653 832.360046 
808.507843 851.277344 823.312653 833.182556 
808.507843 851.277344 822.490173 832.360046 
805.217896 852.922302 821.667694 824.957642 
806.040375 851.277313 821.667694 824.957642 
811.797791 851.277313 821.667694 823.312653 
811.797791 852.099792 821.667664 827.425110 
809.330322 850.454834 824.135162 829.892578 
805.217865 850.454834 824.135132 827.425110 
800.282928 850.454834 824.135162 824.135162 
804.395386 850.454834 823.312653 824.135162 
808.507843 849.632355 824.135162 826.602631 
804.395386 849.632355 823.312653 827.425110 
802.750427 846.342377 820.845215 824.135132 
806.040344 848.809875 821.667694 823.312653 
805.217865 848.809875 821.667694 827.425110 
809.330322 850.454834 819.200226 829.070099 
808.507843 848.809845 818.377716 827.425110 
808.507813 847.987366 821.667694 827.425110 
811.797821 847.164886 821.667664 827.425110 
811.797791 849.632355 822.490173 831.537567 
811.797791 847.987366 824.957642 831.537567 
806.040375 847.987366 823.312653 827.425110 
803.572876 848.809845 824.135162 829.070099 
806.862854 847.987366 823.312653 828.247589 
806.040375 848.809845 822.490173 827.425110 
806.862854 849.632324 821.667664 826.602631 
801.927917 849.632355 824.135132 824.135162 
805.217865 851.277344 823.312653 829.070099 
806.862854 850.454834 820.845184 826.602600 
808.507813 850.454834 820.022705 829.892578 
811.797791 851.277313 820.845215 827.425110 
808.507813 852.099792 822.490173 828.247589 
809.330322 851.277313 822.490173 828.247589 
812.620270 852.099792 824.957642 832.360046 
808.507843 851.277313 824.135162 833.182526 
806.040344 849.632355 824.135162 831.537567 
810.152802 850.454834 824.135162 834.005035 
808.507843 848.809875 824.135162 832.360046 
809.330322 849.632355 824.135162 831.537567 
811.797791 850.454834 826.602600 835.650024 
811.797791 849.632355 825.780121 835.650024 
818.377716 852.099823 825.780151 831.537537 
821.667694 851.277313 826.602600 833.182526 
817.555206 850.454834 825.780121 829.070068 
817.555206 851.277313 822.490173 825.780151 
811.797791 848.809845 820.845184 826.602631 
806.862854 851.277313 820.845184 824.957642 
805.217865 847.987366 821.667694 824.135132 
805.217865 847.987366 823.312653 827.425110 
803.572906 848.809875 823.312653 827.425110 
802.750397 847.987366 823.312653 827.425110 
801.105438 849.632324 823.312683 829.892578 
799.460449 848.809845 821.667694 830.715088 
806.040375 848.809845 821.667694 832.360046 
806.862854 849.632355 821.667694 832.360046 
806.040344 849.632324 823.312653 832.360046 
806.040375 848.809845 823.312683 830.715088 
806.862854 847.164886 820.022705 831.537567 
807.685364 850.454834 820.022705 829.892578 
803.572876 851.277344 820.022705 822.490173 
805.217896 850.454834 819.200195 821.667694 
806.862854 850.454834 821.667694 823.312653 
806.862854 849.632355 822.490173 828.247589 
808.507843 848.809845 823.312653 829.892578 
804.395386 848.809875 824.957642 833.182526 
805.217896 849.632355 820.845215 830.715057 
806.040344 849.632355 820.845184 827.425110 
805.217865 852.099823 823.312653 829.892578 
806.862854 853.744781 821.667694 831.537567 
809.330322 852.099823 823.312653 829.892578 
808.507813 850.454834 822.490173 835.649994 
809.330322 851.277313 820.845184 829.892578 
806.862854 848.809875 820.845184 833.182556 
807.685333 849.632355 822.490173 837.295013 
805.217896 849.632355 820.845215 833.182526 
807.685333 849.632355 821.667694 838.117493 
806.862854 852.099823 824.135162 835.650024 
807.685333 851.277313 824.135162 836.472504 
809.330322 850.454834 823.312683 837.295013 
806.862854 851.277313 824.135162 832.360046 
806.862854 851.277313 820.022705 828.247620 
808.507843 852.099792 820.022705 829.070068 
807.685333 849.632355 821.667694 829.892578 
807.685333 852.099792 821.667694 830.715088 
805.217865 850.454834 823.312653 831.537567 
806.862854 850.454834 820.845215 827.425110 
806.040344 851.277313 820.845184 830.715057 
806.040344 850.454834 821.667694 828.247589 
806.040375 852.099792 820.845215 829.892578 
808.507843 852.922302 821.667694 830.715088 
807.685333 850.454834 821.667694 826.602600 
805.217865 849.632355 820.845184 830.715057 
800.282928 849.632324 820.845184 827.425110 
801.927917 849.632324 819.200226 829.070068 
805.217865 850.454834 821.667664 827.425110 
810.152802 852.099823 821.667664 826.602631 
810.152832 851.277313 820.845184 826.602631 
806.862854 850.454834 819.200195 831.537567 
806.862854 849.632355 820.845215 833.182556 
806.040375 847.987366 821.667694 832.360046 
809.330322 850.454834 820.022705 829.892578 
809.330322 849.632355 820.022705 827.425110 
806.862854 850.454834 820.022705 824.135162 
806.040375 852.099823 821.667694 824.957642 
805.217865 851.277313 822.490173 826.602631 
806.862854 849.632355 824.135162 828.247589 
807.685333 848.809875 823.312683 830.715088 
809.330322 848.809845 822.490173 828.247589 
807.685364 850.454834 822.490173 829.070099 
806.862854 849.632355 820.845215 826.602631 
808.507843 849.632355 822.490173 830.715088 
806.862854 850.454834 820.845215 829.070099 
810.975311 850.454834 821.667664 829.892578 
810.975311 851.277313 819.200226 822.490173 
814.265259 850.454834 821.667694 826.602631 
812.620300 851.277313 822.490173 826.602631 
817.555237 852.099823 822.490173 829.070068 
815.910248 851.277313 821.667694 829.892609 
811.797791 851.277313 822.490173 833.182556 
810.975311 849.632355 822.490173 829.892578 
806.862854 847.987366 821.667694 829.070068 
807.685333 850.454834 822.490173 834.005035 
803.572906 848.809875 821.667694 829.070099 
802.750397 848.809845 820.845184 830.715088 
802.750427 851.277313 820.845184 834.827545 
806.040375 851.277313 820.845184 831.537567 
805.217865 852.922302 822.490173 832.360046 
801.105408 852.099823 820.845215 828.247589 
802.750427 851.277313 820.022705 830.715088 
808.507843 852.922302 819.200226 832.360046 
806.040375 852.099823 819.200226 830.715088 
812.620270 852.922302 820.022705 830.715057 
807.685333 853.744812 820.022705 826.602600 
806.862854 852.099823 820.022705 831.537567 
808.507813 851.277344 820.022705 832.360046 
807.685333 849.632324 820.022705 832.360046 
806.040375 849.632324 820.022705 832.360046 
806.040375 851.277344 820.845184 827.425110 
806.862854 851.277344 819.200226 829.892578 
805.217865 851.277313 820.022705 831.537567 
805.217865 850.454834 819.200226 833.182526 
808.507813 852.099823 819.200226 831.537567 
812.620270 852.099823 820.845184 830.715057 
807.685364 850.454834 820.845184 831.537567 
806.040375 849.632355 820.022705 831.537537 
807.685333 851.277313 818.377747 828.247620 
805.217865 850.454834 816.732727 826.602631 
807.685333 851.277313 817.555237 823.312653 
811.797791 850.454834 817.555237 829.070068 
807.685333 850.454834 820.845184 829.070068 
809.330322 850.454834 822.490173 827.425110 
807.685333 849.632355 823.312683 825.780121 
806.040375 850.454834 820.845184 829.070068 
808.507843 848.809875 820.845184 826.602600 
810.975311 851.277344 821.667664 824.957642 
813.442780 851.277313 821.667664 826.602600 
810.975311 850.454834 824.135162 830.715057 
806.862854 850.454834 823.312683 833.182556 
811.797791 851.277313 823.312683 834.827515 
810.975311 851.277313 824.135162 834.005005 
809.330322 851.277313 823.312653 828.247589 
812.620270 852.099823 822.490173 829.892578 
806.862854 849.632324 824.135162 829.070068 
806.040375 849.632355 822.490173 828.247589 
806.040344 850.454834 822.490173 830.715088 
806.040375 852.099792 823.312653 829.070099 
807.685333 851.277313 821.667694 826.602631 
807.685364 852.099792 821.667694 828.247589 
804.395386 850.454834 821.667694 827.425110 
806.040375 849.632355 821.667694 831.537567 
805.217865 849.632324 823.312683 829.070099 
804.395386 850.454834 823.312683 829.070099 
806.862854 851.277344 822.490173 831.537537 
805.217896 849.632355 820.845184 828.247620 
809.330322 850.454834 820.845215 829.070099 
810.152802 852.099792 822.490173 829.070099 
809.330353 850.454834 821.667694 828.247589 
810.975311 852.099792 821.667694 829.892578 
809.330353 850.454834 822.490173 830.715057 
807.685333 849.632355 821.667694 829.892578 
809.330322 851.277313 824.957642 831.537567 
810.975281 851.277313 824.135132 832.360046 
806.040375 849.632355 822.490173 831.537567 
808.507813 849.632355 821.667664 829.892609 
806.862854 850.454834 821.667694 825.780121 
805.217896 851.277313 822.490173 827.425110 
806.862854 851.277313 821.667694 829.892578 
802.750397 849.632355 822.490173 826.602631 
800.282928 848.809875 820.845215 825.780121 
802.750397 850.454834 822.490173 826.602631 
801.105438 847.164886 824.135132 824.957642 
796.170502 847.987366 820.845215 824.135162 
797.815460 848.809875 821.667694 823.312683 
799.460449 847.987366 820.845184 823.312683 
801.927917 849.632355 820.845184 828.247589 
801.105408 850.454834 821.667694 831.537537 
802.750427 849.632355 823.312653 828.247589 
804.395386 849.632355 821.667664 827.425110 
806.040344 851.277313 821.667694 827.425110 
801.105438 849.632355 821.667664 826.602631 
800.282928 848.809875 821.667694 826.602631 
799.460449 849.632355 822.490173 824.135132 
801.105438 847.987366 823.312653 824.957642 
801.927917 850.454834 822.490173 827.425110 
801.105408 850.454834 822.490173 824.135132 
806.040375 851.277313 822.490173 825.780151 
803.572906 849.632355 821.667694 826.602631 
805.217865 849.632324 820.022705 825.780121 
803.572876 850.454834 821.667694 827.425110 
798.637970 851.277313 820.845184 820.022705 
801.105408 851.277313 820.022705 821.667694 
803.572876 852.099792 821.667664 824.135162 
802.750397 852.099792 821.667694 824.957642 
806.040375 854.567291 821.667694 827.425110 
805.217865 852.099792 822.490173 824.957642 
799.460449 850.454834 820.022705 827.425110 
798.637939 848.809875 820.845184 821.667694 
802.750397 850.454834 821.667664 824.957642 
804.395386 852.922302 821.667664 823.312653 
805.217896 851.277313 822.490173 826.602631 
804.395386 849.632355 822.490173 829.070099 
801.105438 849.632355 823.312653 829.892578 
802.750397 848.809845 822.490173 828.247589 
800.282959 847.987366 820.845184 824.957642 
800.282959 847.164856 820.022705 824.135162 
801.927917 849.632355 819.200226 820.022705 
801.105438 850.454834 820.022705 825.780121 
803.572876 850.454834 821.667664 829.070099 
801.105438 850.454834 820.022705 822.490143 
801.105408 848.809875 818.377716 824.957642 
803.572906 850.454834 818.377716 824.135162 
806.040344 850.454834 820.022705 826.602631 
806.040375 849.632324 820.845184 829.070099 
806.862854 848.809845 821.667694 829.070099 
805.217865 849.632324 819.200226 827.425110 
801.105438 848.809875 819.200226 821.667694 
801.927917 849.632355 819.200226 824.957642 
800.282959 847.987366 819.200226 823.312653 
802.750397 847.987366 820.845184 828.247620 
799.460449 847.987366 820.022705 829.892578 
804.395386 849.632355 821.667694 826.602631 
806.040375 848.809875 823.312683 824.957642 
805.217896 849.632355 821.667664 826.602631 
806.862854 850.454834 821.667664 829.892578 
806.040344 849.632324 822.490173 829.070099 
807.685333 851.277344 821.667664 829.070068 
805.217865 849.632355 818.377716 827.425110 
803.572906 847.987366 820.022705 826.602631 
801.927917 850.454834 820.022705 824.135132 
805.217865 848.809875 820.022705 824.957642 
806.862854 850.454834 820.845184 826.602600 
801.927917 849.632324 819.200195 825.780121 
802.750427 848.809875 820.022705 825.780121 
808.507843 848.809875 821.667694 825.780121 
805.217865 849.632324 820.845184 827.425110 
806.862854 849.632355 821.667664 829.892578 
806.862854 850.454834 820.022705 828.247589 
807.685364 850.454834 819.200226 829.070099 
806.040375 848.809875 821.667694 828.247589 
803.572906 849.632324 820.845215 826.602600 
806.862854 847.987366 819.200226 825.780151 
805.217896 849.632355 820.022705 822.490173 
807.685364 849.632355 820.022705 826.602631 
807.685333 847.164886 820.022705 829.892578 
804.395386 847.987366 820.022705 823.312653 
804.395386 848.809875 818.377716 824.957642 
803.572906 847.164886 818.377716 820.845215 
807.685333 850.454834 817.555237 822.490173 
806.040344 849.632324 819.200195 825.780121 
808.507843 850.454834 820.022705 826.602631 
806.040375 850.454834 820.022705 825.780151 
801.105438 849.632324 820.845184 824.135132 
800.282959 847.987366 820.022705 829.070099 
806.040375 849.632324 820.845184 826.602631 
806.862854 848.809845 820.022705 826.602600 
810.975311 850.454834 820.845215 829.892578 
815.910248 850.454834 820.845215 830.715057 
813.442780 848.809845 820.022705 826.602631 
813.442780 849.632355 821.667694 829.070068 
815.087738 850.454834 821.667694 831.537567 
809.330322 849.632355 820.845184 830.715057 
809.330322 848.809845 820.845184 834.005035 
805.217865 848.809845 820.022705 831.537567 
805.217865 847.987366 822.490173 836.472504 
806.862854 848.809845 821.667664 830.715057 
801.105408 848.809845 821.667664 829.892578 
802.750397 847.987366 821.667664 834.827515 
801.105438 847.164886 820.022705 827.425110 
802.750427 845.519897 820.845184 832.360046 
804.395386 845.519897 821.667664 832.360046 
805.217865 846.342407 821.667694 832.360046 
806.040375 847.164886 822.490173 832.360046 
804.395386 847.987366 823.312683 829.892578 
804.395386 847.164886 820.845184 828.247620 
801.105408 846.342407 820.845184 827.425110 
803.572906 847.987366 820.845184 832.360046 
802.750397 847.987366 818.377716 829.892578 
801.927917 847.987366 819.200195 828.247589 
806.862854 847.987366 820.845215 830.715088 
808.507813 849.632355 819.200195 830.715057 
808.507843 847.987366 820.022705 828.247589 
809.330322 849.632355 820.022705 824.957642 
810.975311 850.454834 819.200226 827.425110 
814.265289 848.809875 820.845215 834.827515 
820.845184 850.454834 820.022705 834.005035 
814.265259 850.454834 819.200226 830.715057 
809.330353 850.454834 820.022705 826.602600 
807.685333 851.277344 818.377716 826.602631 
807.685364 850.454834 819.200226 826.602600 
812.620300 848.809845 819.200226 827.425110 
806.862854 848.809845 818.377747 824.957642 
805.217865 849.632355 818.377716 823.312653 
806.862854 848.809845 820.022705 827.425110 
804.395386 847.164886 816.732727 825.780121 
805.217896 849.632355 818.377716 824.135162 
804.395386 848.809875 819.200226 826.602600 
806.040375 849.632355 818.377716 830.715088 
807.685333 849.632355 819.200195 828.247589 
806.862854 848.809845 818.377716 830.715057 
808.507843 847.987366 817.555237 828.247589 
806.862854 847.164886 817.555237 823.312683 
806.862854 847.987366 819.200195 825.780151 
806.862854 847.164856 816.732758 824.135162 
804.395386 847.987366 817.555237 824.135162 
804.395386 847.164886 817.555237 824.957642 
806.040344 847.987366 817.555237 824.135132 
806.040344 847.164886 819.200226 827.425110 
807.685333 847.164886 820.022705 826.602631 
808.507843 847.987366 820.022705 834.005035 
806.862854 847.164886 820.022705 832.360046 
804.395386 847.164856 820.022705 828.247589 
805.217865 848.809845 820.022705 829.070099 
806.862854 849.632355 820.022705 828.247620 
808.507843 848.809845 819.200195 829.070099 
806.862854 849.632355 820.022705 830.715088 
807.685333 849.632355 818.377716 824.135162 
810.975311 847.164886 816.732758 822.490173 
814.265259 849.632355 817.555237 824.957642 
816.732758 851.277313 819.200195 825.780151 
819.200226 849.632355 816.732758 826.602600 
818.377716 849.632355 817.555237 824.957642 
815.087769 849.632355 817.555237 822.490173 
811.797791 850.454834 820.022705 828.247620 
806.862854 849.632324 819.200226 829.070099 
804.395386 848.809845 818.377747 829.070099 
804.395386 847.987366 818.377716 827.425110 
805.217896 848.809845 819.200195 826.602600 
806.862854 848.809845 820.845184 828.247589 
805.217865 848.809845 818.377747 830.715088 
806.040344 847.987366 818.377747 830.715057 
805.217865 847.987366 817.555237 829.892578 
801.105408 847.987366 818.377716 827.425110 
806.040375 847.164886 818.377716 829.892578 
801.105408 847.164886 819.200226 827.425110 
802.750397 847.987366 819.200226 829.070099 
801.105438 847.164886 816.732727 827.425110 
800.282959 847.164886 818.377747 824.135162 
804.395386 848.809875 819.200226 829.070099 
803.572906 846.342377 820.022705 829.892578 
804.395386 846.342377 819.200226 832.360046 
803.572906 845.519897 817.555237 828.247620 
805.217865 847.987366 816.732727 825.780151 
806.040375 849.632355 819.200226 827.425110 
802.750427 847.987366 819.200226 829.070068 
804.395386 847.987366 817.555237 825.780121 
799.460449 846.342377 815.910248 824.957642 
801.927917 848.809875 817.555237 823.312653 
800.282959 847.987366 816.732727 822.490173 
801.927917 847.987366 816.732727 825.780121 
806.862854 848.809875 819.200226 829.070099 
804.395386 849.632355 817.555237 826.602631 
801.927917 847.987366 816.732758 823.312683 
800.282959 847.164886 819.200226 821.667664 
798.637939 848.809845 817.555237 821.667694 
801.927917 847.987366 817.555237 824.957642 
802.750397 847.987366 820.022705 825.780151 
801.105438 847.164856 818.377716 824.135162 
806.040375 846.342377 819.200195 824.135162 
807.685333 848.809845 818.377716 827.425110 
806.040344 848.809845 818.377716 826.602600 
806.040375 848.809845 820.022705 827.425110 
806.040375 847.987366 819.200226 827.425110 
804.395386 848.809875 816.732727 822.490173 
803.572876 847.164856 818.377747 826.602631 
802.750397 847.164886 818.377747 821.667694 
800.282928 847.987366 817.555237 822.490173 
801.927917 847.987366 818.377716 822.490173 
803.572876 847.987366 815.910248 822.490173 
802.750397 847.164886 817.555237 825.780151 
803.572906 847.164856 818.377716 824.957642 
806.040375 847.987366 816.732727 821.667694 
805.217865 847.987366 819.200226 822.490173 
808.507843 847.164856 819.200195 820.845215 
806.040344 845.519897 819.200195 822.490173 
801.105408 845.519897 819.200195 823.312653 
800.282928 845.519897 819.200226 821.667694 
803.572906 847.164856 820.022705 824.135162 
805.217896 847.164886 820.845215 822.490173 
802.750397 845.519897 820.022705 822.490173 
802.750397 846.342377 817.555237 820.845184 
800.282959 845.519897 819.200226 818.377716 
803.572876 844.697418 820.845184 819.200226 
802.750427 845.519897 820.845215 818.377716 
802.750427 844.697418 820.845215 819.200226 
804.395386 845.519897 819.200195 820.022705 
801.927917 846.342407 820.845215 825.780121 
803.572906 846.342407 821.667694 824.957642 
801.927917 846.342377 820.022705 827.425110 
801.105438 846.342407 820.022705 823.312683 
802.750397 846.342407 817.555237 823.312683 
801.927917 845.519897 818.377716 821.667664 
799.460449 845.519897 818.377716 824.135132 
802.750397 846.342407 819.200195 826.602631 
803.572906 845.519897 819.200226 827.425110 
804.395386 846.342377 818.377747 829.070099 
804.395386 846.342377 819.200226 829.892578 
800.282928 846.342377 819.200226 825.780151 
801.105408 847.164886 819.200226 829.892578 
800.282928 847.164886 820.845184 833.182556 
800.282928 846.342407 820.022705 828.247589 
801.927917 847.987366 819.200226 827.425110 
804.395386 847.987366 820.022705 826.602631 
801.105408 848.809875 819.200226 830.715057 
803.572906 847.164856 819.200226 831.537567 
805.217896 846.342377 819.200226 829.892578 
801.105438 847.164856 819.200226 829.070068 
800.282959 847.987366 820.022705 827.425110 
