838.940002 870.194580 832.360046 852.099792 
835.650024 871.839600 830.715088 852.099792 
842.229919 870.194580 832.360046 852.099792 
847.164856 866.904663 830.715088 850.454834 
842.229919 866.904663 829.070068 847.164856 
842.229919 866.904663 830.715088 848.809875 
834.005005 865.259644 832.360046 843.874939 
838.940002 866.904663 832.360046 848.809875 
852.099792 870.194580 832.360046 857.034729 
845.519897 868.549622 832.360046 847.164856 
838.940002 866.904663 832.360046 845.519897 
838.940002 865.259644 835.650024 843.874939 
832.360046 861.969727 832.360046 837.294983 
834.005005 861.969727 829.070068 835.650024 
834.005005 861.969727 829.070068 840.584961 
832.360046 860.324707 829.070068 837.294983 
832.360046 858.679749 827.425110 848.809875 
829.070068 858.679749 825.780151 848.809875 
834.005005 858.679749 824.135132 838.940002 
832.360046 855.389771 822.490173 843.874939 
834.005005 852.099792 824.135132 838.940002 
832.360046 850.454834 822.490173 838.940002 
819.200195 850.454834 822.490173 837.294983 
825.780151 853.744812 822.490173 834.005005 
820.845215 850.454834 820.845215 834.005005 
825.780151 850.454834 820.845215 835.650024 
825.780151 847.164856 819.200195 842.229919 
825.780151 847.164856 817.555237 843.874939 
822.490173 850.454834 819.200195 834.005005 
817.555237 848.809875 817.555237 837.294983 
814.265259 845.519897 817.555237 837.294983 
814.265259 842.229919 819.200195 838.940002 
815.910278 843.874939 819.200195 845.519897 
814.265259 843.874939 817.555237 842.229919 
815.910278 845.519897 817.555237 834.005005 
819.200195 845.519897 814.265259 838.940002 
814.265259 842.229919 815.910278 834.005005 
810.975281 845.519897 812.620300 838.940002 
812.620300 845.519897 814.265259 842.229919 
810.975281 842.229919 815.910278 837.294983 
817.555237 845.519897 812.620300 840.584961 
815.910278 842.229919 815.910278 837.294983 
810.975281 842.229919 814.265259 834.005005 
812.620300 843.874939 812.620300 827.425110 
817.555237 845.519897 815.910278 832.360046 
814.265259 845.519897 814.265259 834.005005 
815.910278 843.874939 812.620300 830.715088 
814.265259 842.229919 812.620300 835.650024 
810.975281 840.584961 812.620300 834.005005 
809.330322 838.940002 812.620300 829.070068 
806.040344 838.940002 812.620300 835.650024 
809.330322 840.584961 812.620300 830.715088 
810.975281 842.229919 814.265259 832.360046 
814.265259 845.519897 812.620300 837.294983 
806.040344 843.874939 812.620300 834.005005 
810.975281 843.874939 812.620300 834.005005 
810.975281 843.874939 810.975281 827.425110 
810.975281 843.874939 812.620300 829.070068 
814.265259 845.519897 812.620300 830.715088 
809.330322 843.874939 812.620300 832.360046 
809.330322 842.229919 810.975281 827.425110 
810.975281 843.874939 810.975281 837.294983 
807.685364 843.874939 810.975281 837.294983 
807.685364 845.519897 809.330322 830.715088 
807.685364 847.164856 810.975281 832.360046 
809.330322 847.164856 810.975281 825.780151 
810.975281 845.519897 810.975281 820.845215 
814.265259 847.164856 807.685364 829.070068 
817.555237 848.809875 807.685364 829.070068 
812.620300 848.809875 807.685364 824.135132 
809.330322 845.519897 809.330322 832.360046 
810.975281 845.519897 812.620300 827.425110 
804.395386 847.164856 810.975281 829.070068 
807.685364 850.454834 810.975281 829.070068 
812.620300 850.454834 809.330322 827.425110 
806.040344 845.519897 812.620300 830.715088 
809.330322 843.874939 814.265259 835.650024 
809.330322 847.164856 810.975281 832.360046 
804.395386 847.164856 810.975281 822.490173 
809.330322 847.164856 806.040344 824.135132 
810.975281 845.519897 807.685364 824.135132 
810.975281 845.519897 810.975281 829.070068 
807.685364 847.164856 809.330322 832.360046 
809.330322 847.164856 807.685364 824.135132 
807.685364 847.164856 807.685364 817.555237 
814.265259 848.809875 809.330322 825.780151 
819.200195 850.454834 810.975281 829.070068 
812.620300 848.809875 809.330322 825.780151 
812.620300 847.164856 810.975281 830.715088 
812.620300 845.519897 810.975281 825.780151 
812.620300 845.519897 807.685364 825.780151 
812.620300 845.519897 807.685364 827.425110 
814.265259 843.874939 810.975281 829.070068 
819.200195 847.164856 812.620300 837.294983 
819.200195 847.164856 814.265259 834.005005 
819.200195 847.164856 814.265259 830.715088 
810.975281 845.519897 812.620300 835.650024 
806.040344 843.874939 814.265259 832.360046 
812.620300 843.874939 814.265259 832.360046 
809.330322 842.229919 814.265259 835.650024 
807.685364 842.229919 814.265259 830.715088 
810.975281 843.874939 814.265259 838.940002 
817.555237 843.874939 815.910278 835.650024 
814.265259 843.874939 815.910278 832.360046 
812.620300 843.874939 815.910278 827.425110 
810.975281 843.874939 817.555237 824.135132 
812.620300 843.874939 815.910278 834.005005 
814.265259 843.874939 815.910278 832.360046 
807.685364 843.874939 814.265259 832.360046 
807.685364 843.874939 815.910278 835.650024 
809.330322 845.519897 815.910278 832.360046 
810.975281 843.874939 814.265259 827.425110 
812.620300 845.519897 815.910278 832.360046 
812.620300 847.164856 815.910278 825.780151 
815.910278 850.454834 812.620300 829.070068 
814.265259 850.454834 814.265259 837.294983 
812.620300 847.164856 814.265259 837.294983 
815.910278 845.519897 815.910278 838.940002 
814.265259 843.874939 817.555237 835.650024 
817.555237 847.164856 819.200195 830.715088 
819.200195 847.164856 819.200195 837.294983 
810.975281 843.874939 815.910278 834.005005 
812.620300 843.874939 814.265259 832.360046 
817.555237 845.519897 815.910278 838.940002 
815.910278 843.874939 815.910278 832.360046 
815.910278 845.519897 817.555237 830.715088 
814.265259 843.874939 815.910278 819.200195 
809.330322 843.874939 814.265259 820.845215 
807.685364 847.164856 817.555237 827.425110 
814.265259 847.164856 817.555237 832.360046 
817.555237 845.519897 817.555237 835.650024 
814.265259 845.519897 815.910278 827.425110 
809.330322 842.229919 814.265259 830.715088 
810.975281 840.584961 814.265259 835.650024 
809.330322 842.229919 815.910278 834.005005 
814.265259 843.874939 817.555237 835.650024 
819.200195 845.519897 817.555237 837.294983 
812.620300 847.164856 815.910278 829.070068 
819.200195 845.519897 814.265259 835.650024 
817.555237 847.164856 815.910278 834.005005 
820.845215 847.164856 817.555237 835.650024 
817.555237 843.874939 819.200195 835.650024 
814.265259 845.519897 815.910278 827.425110 
817.555237 845.519897 812.620300 829.070068 
814.265259 845.519897 814.265259 832.360046 
814.265259 845.519897 815.910278 842.229919 
812.620300 847.164856 815.910278 830.715088 
814.265259 845.519897 812.620300 835.650024 
817.555237 845.519897 810.975281 829.070068 
812.620300 843.874939 815.910278 829.070068 
819.200195 842.229919 815.910278 834.005005 
809.330322 840.584961 814.265259 830.715088 
812.620300 842.229919 810.975281 835.650024 
815.910278 842.229919 814.265259 832.360046 
810.975281 842.229919 812.620300 832.360046 
810.975281 843.874939 812.620300 829.070068 
814.265259 843.874939 815.910278 834.005005 
812.620300 840.584961 812.620300 835.650024 
815.910278 845.519897 812.620300 830.715088 
817.555237 842.229919 812.620300 835.650024 
812.620300 843.874939 814.265259 832.360046 
814.265259 843.874939 812.620300 842.229919 
815.910278 842.229919 809.330322 834.005005 
817.555237 842.229919 809.330322 832.360046 
817.555237 842.229919 809.330322 837.294983 
814.265259 842.229919 809.330322 830.715088 
809.330322 842.229919 812.620300 832.360046 
812.620300 842.229919 812.620300 832.360046 
809.330322 843.874939 814.265259 829.070068 
810.975281 843.874939 812.620300 830.715088 
814.265259 845.519897 814.265259 824.135132 
822.490173 843.874939 812.620300 830.715088 
825.780151 843.874939 809.330322 832.360046 
829.070068 845.519897 814.265259 830.715088 
829.070068 843.874939 812.620300 827.425110 
827.425110 845.519897 814.265259 824.135132 
820.845215 845.519897 815.910278 829.070068 
810.975281 845.519897 815.910278 832.360046 
802.750427 842.229919 815.910278 837.294983 
799.460449 840.584961 814.265259 834.005005 
809.330322 842.229919 817.555237 837.294983 
806.040344 843.874939 817.555237 838.940002 
807.685364 847.164856 815.910278 829.070068 
814.265259 845.519897 814.265259 829.070068 
815.910278 843.874939 814.265259 834.005005 
817.555237 843.874939 817.555237 840.584961 
815.910278 845.519897 817.555237 842.229919 
810.975281 843.874939 817.555237 837.294983 
812.620300 843.874939 817.555237 837.294983 
817.555237 843.874939 817.555237 837.294983 
814.265259 842.229919 817.555237 832.360046 
812.620300 843.874939 819.200195 829.070068 
810.975281 843.874939 817.555237 827.425110 
809.330322 843.874939 817.555237 827.425110 
809.330322 843.874939 817.555237 830.715088 
815.910278 843.874939 819.200195 838.940002 
820.845215 843.874939 819.200195 842.229919 
819.200195 845.519897 820.845215 834.005005 
817.555237 842.229919 820.845215 842.229919 
814.265259 840.584961 820.845215 834.005005 
815.910278 843.874939 819.200195 830.715088 
820.845215 843.874939 819.200195 842.229919 
815.910278 842.229919 820.845215 834.005005 
822.490173 842.229919 819.200195 837.294983 
814.265259 840.584961 820.845215 840.584961 
810.975281 842.229919 817.555237 837.294983 
815.910278 842.229919 817.555237 834.005005 
814.265259 840.584961 817.555237 835.650024 
819.200195 840.584961 819.200195 832.360046 
819.200195 840.584961 820.845215 835.650024 
817.555237 838.940002 817.555237 838.940002 
820.845215 838.940002 819.200195 837.294983 
817.555237 837.294983 819.200195 837.294983 
812.620300 840.584961 817.555237 832.360046 
810.975281 840.584961 815.910278 822.490173 
807.685364 840.584961 817.555237 827.425110 
809.330322 840.584961 819.200195 827.425110 
812.620300 842.229919 819.200195 824.135132 
814.265259 843.874939 819.200195 834.005005 
815.910278 838.940002 819.200195 827.425110 
817.555237 840.584961 817.555237 825.780151 
815.910278 840.584961 822.490173 834.005005 
810.975281 842.229919 820.845215 832.360046 
815.910278 843.874939 819.200195 829.070068 
817.555237 843.874939 820.845215 830.715088 
819.200195 842.229919 819.200195 829.070068 
819.200195 843.874939 817.555237 829.070068 
822.490173 845.519897 819.200195 830.715088 
819.200195 843.874939 819.200195 834.005005 
819.200195 842.229919 817.555237 830.715088 
820.845215 842.229919 819.200195 829.070068 
819.200195 842.229919 819.200195 834.005005 
814.265259 840.584961 817.555237 829.070068 
819.200195 842.229919 814.265259 832.360046 
822.490173 842.229919 814.265259 834.005005 
819.200195 843.874939 814.265259 834.005005 
815.910278 843.874939 814.265259 829.070068 
817.555237 842.229919 814.265259 829.070068 
814.265259 842.229919 814.265259 824.135132 
815.910278 842.229919 814.265259 827.425110 
815.910278 842.229919 812.620300 834.005005 
809.330322 843.874939 814.265259 824.135132 
806.040344 842.229919 815.910278 829.070068 
809.330322 843.874939 817.555237 834.005005 
807.685364 842.229919 819.200195 827.425110 
807.685364 840.584961 819.200195 834.005005 
812.620300 840.584961 814.265259 832.360046 
814.265259 840.584961 814.265259 829.070068 
807.685364 842.229919 815.910278 832.360046 
802.750427 840.584961 817.555237 834.005005 
804.395386 838.940002 820.845215 829.070068 
806.040344 840.584961 819.200195 835.650024 
812.620300 838.940002 817.555237 832.360046 
814.265259 840.584961 815.910278 835.650024 
809.330322 842.229919 815.910278 834.005005 
807.685364 840.584961 817.555237 838.940002 
806.040344 842.229919 817.555237 837.294983 
809.330322 842.229919 815.910278 830.715088 
815.910278 843.874939 814.265259 827.425110 
812.620300 843.874939 814.265259 830.715088 
807.685364 842.229919 815.910278 829.070068 
809.330322 840.584961 817.555237 834.005005 
814.265259 843.874939 817.555237 834.005005 
815.910278 845.519897 815.910278 827.425110 
820.845215 845.519897 815.910278 837.294983 
817.555237 843.874939 817.555237 840.584961 
815.910278 842.229919 819.200195 835.650024 
822.490173 843.874939 819.200195 837.294983 
819.200195 845.519897 815.910278 837.294983 
820.845215 843.874939 817.555237 832.360046 
814.265259 842.229919 815.910278 834.005005 
819.200195 842.229919 817.555237 834.005005 
815.910278 842.229919 817.555237 834.005005 
815.910278 842.229919 819.200195 832.360046 
820.845215 840.584961 815.910278 842.229919 
814.265259 840.584961 817.555237 835.650024 
807.685364 840.584961 815.910278 834.005005 
815.910278 840.584961 817.555237 829.070068 
817.555237 842.229919 817.555237 834.005005 
812.620300 838.940002 815.910278 829.070068 
815.910278 840.584961 814.265259 832.360046 
810.975281 838.940002 815.910278 835.650024 
815.910278 840.584961 817.555237 834.005005 
819.200195 840.584961 819.200195 835.650024 
817.555237 838.940002 817.555237 838.940002 
819.200195 838.940002 817.555237 838.940002 
814.265259 842.229919 819.200195 835.650024 
812.620300 840.584961 817.555237 834.005005 
810.975281 842.229919 817.555237 830.715088 
809.330322 840.584961 815.910278 832.360046 
810.975281 840.584961 817.555237 835.650024 
810.975281 840.584961 817.555237 835.650024 
817.555237 838.940002 819.200195 837.294983 
815.910278 840.584961 819.200195 832.360046 
822.490173 840.584961 820.845215 835.650024 
819.200195 840.584961 822.490173 840.584961 
810.975281 840.584961 820.845215 834.005005 
810.975281 840.584961 820.845215 838.940002 
817.555237 840.584961 819.200195 837.294983 
822.490173 842.229919 817.555237 843.874939 
820.845215 840.584961 815.910278 843.874939 
819.200195 840.584961 815.910278 840.584961 
819.200195 840.584961 815.910278 832.360046 
817.555237 840.584961 819.200195 827.425110 
820.845215 842.229919 820.845215 830.715088 
817.555237 842.229919 820.845215 837.294983 
817.555237 842.229919 819.200195 834.005005 
819.200195 842.229919 817.555237 832.360046 
819.200195 842.229919 819.200195 842.229919 
819.200195 843.874939 815.910278 835.650024 
814.265259 843.874939 817.555237 835.650024 
817.555237 840.584961 819.200195 834.005005 
815.910278 840.584961 819.200195 832.360046 
812.620300 837.294983 819.200195 834.005005 
820.845215 840.584961 819.200195 840.584961 
819.200195 842.229919 819.200195 838.940002 
819.200195 840.584961 819.200195 842.229919 
814.265259 840.584961 817.555237 840.584961 
812.620300 840.584961 815.910278 838.940002 
814.265259 838.940002 814.265259 830.715088 
809.330322 837.294983 817.555237 830.715088 
817.555237 837.294983 815.910278 830.715088 
819.200195 837.294983 817.555237 838.940002 
814.265259 840.584961 819.200195 840.584961 
817.555237 840.584961 817.555237 834.005005 
812.620300 842.229919 815.910278 835.650024 
814.265259 842.229919 815.910278 830.715088 
814.265259 842.229919 814.265259 827.425110 
807.685364 843.874939 814.265259 829.070068 
810.975281 842.229919 814.265259 835.650024 
809.330322 843.874939 812.620300 832.360046 
815.910278 845.519897 814.265259 829.070068 
817.555237 843.874939 815.910278 832.360046 
810.975281 840.584961 815.910278 838.940002 
810.975281 838.940002 815.910278 834.005005 
809.330322 842.229919 815.910278 842.229919 
809.330322 845.519897 814.265259 832.360046 
810.975281 843.874939 815.910278 825.780151 
810.975281 845.519897 814.265259 834.005005 
815.910278 845.519897 814.265259 835.650024 
814.265259 847.164856 814.265259 835.650024 
810.975281 848.809875 812.620300 837.294983 
810.975281 847.164856 814.265259 840.584961 
812.620300 845.519897 814.265259 832.360046 
815.910278 847.164856 815.910278 832.360046 
822.490173 850.454834 814.265259 830.715088 
820.845215 852.099792 812.620300 834.005005 
817.555237 853.744812 810.975281 835.650024 
822.490173 852.099792 809.330322 838.940002 
819.200195 853.744812 809.330322 838.940002 
820.845215 853.744812 809.330322 827.425110 
814.265259 853.744812 809.330322 829.070068 
812.620300 852.099792 809.330322 827.425110 
815.910278 853.744812 809.330322 827.425110 
814.265259 850.454834 810.975281 835.650024 
814.265259 850.454834 807.685364 829.070068 
810.975281 852.099792 807.685364 830.715088 
812.620300 850.454834 809.330322 832.360046 
819.200195 852.099792 809.330322 830.715088 
820.845215 853.744812 807.685364 832.360046 
819.200195 853.744812 809.330322 838.940002 
817.555237 855.389771 809.330322 838.940002 
824.135132 855.389771 812.620300 837.294983 
827.425110 855.389771 810.975281 840.584961 
822.490173 853.744812 807.685364 843.874939 
824.135132 852.099792 809.330322 837.294983 
824.135132 852.099792 809.330322 838.940002 
822.490173 853.744812 810.975281 832.360046 
825.780151 855.389771 809.330322 829.070068 
819.200195 855.389771 807.685364 840.584961 
817.555237 855.389771 807.685364 837.294983 
824.135132 855.389771 809.330322 834.005005 
819.200195 855.389771 809.330322 827.425110 
824.135132 857.034729 809.330322 832.360046 
819.200195 855.389771 806.040344 830.715088 
815.910278 853.744812 807.685364 829.070068 
817.555237 852.099792 809.330322 837.294983 
817.555237 853.744812 809.330322 827.425110 
819.200195 855.389771 810.975281 834.005005 
824.135132 855.389771 810.975281 832.360046 
830.715088 853.744812 807.685364 832.360046 
838.940002 857.034729 806.040344 829.070068 
843.874939 858.679749 807.685364 835.650024 
840.584961 858.679749 809.330322 838.940002 
842.229919 857.034729 809.330322 843.874939 
837.294983 858.679749 809.330322 845.519897 
830.715088 857.034729 807.685364 845.519897 
825.780151 857.034729 807.685364 840.584961 
820.845215 857.034729 809.330322 840.584961 
817.555237 857.034729 809.330322 842.229919 
824.135132 858.679749 809.330322 845.519897 
822.490173 858.679749 807.685364 840.584961 
822.490173 858.679749 807.685364 840.584961 
822.490173 857.034729 807.685364 835.650024 
824.135132 858.679749 804.395386 835.650024 
819.200195 857.034729 804.395386 835.650024 
817.555237 855.389771 804.395386 829.070068 
809.330322 857.034729 806.040344 834.005005 
809.330322 855.389771 806.040344 830.715088 
814.265259 853.744812 806.040344 835.650024 
817.555237 855.389771 807.685364 840.584961 
824.135132 855.389771 807.685364 835.650024 
817.555237 858.679749 809.330322 837.294983 
815.910278 858.679749 810.975281 834.005005 
817.555237 855.389771 809.330322 835.650024 
822.490173 857.034729 804.395386 834.005005 
819.200195 857.034729 806.040344 834.005005 
820.845215 855.389771 807.685364 830.715088 
824.135132 855.389771 809.330322 835.650024 
820.845215 855.389771 810.975281 834.005005 
819.200195 853.744812 809.330322 834.005005 
815.910278 855.389771 806.040344 834.005005 
814.265259 855.389771 806.040344 832.360046 
819.200195 857.034729 807.685364 829.070068 
825.780151 858.679749 806.040344 834.005005 
822.490173 853.744812 809.330322 829.070068 
817.555237 853.744812 809.330322 825.780151 
819.200195 852.099792 809.330322 829.070068 
814.265259 855.389771 807.685364 825.780151 
819.200195 853.744812 807.685364 830.715088 
819.200195 853.744812 809.330322 827.425110 
815.910278 855.389771 807.685364 827.425110 
817.555237 853.744812 806.040344 825.780151 
814.265259 852.099792 806.040344 822.490173 
814.265259 852.099792 806.040344 825.780151 
822.490173 855.389771 806.040344 834.005005 
820.845215 853.744812 807.685364 834.005005 
829.070068 855.389771 807.685364 834.005005 
824.135132 855.389771 807.685364 830.715088 
824.135132 855.389771 809.330322 832.360046 
834.005005 858.679749 809.330322 842.229919 
830.715088 858.679749 810.975281 840.584961 
835.650024 858.679749 809.330322 843.874939 
832.360046 857.034729 810.975281 835.650024 
825.780151 858.679749 809.330322 834.005005 
830.715088 858.679749 810.975281 837.294983 
832.360046 860.324707 809.330322 834.005005 
825.780151 860.324707 807.685364 824.135132 
827.425110 858.679749 809.330322 830.715088 
825.780151 858.679749 809.330322 834.005005 
825.780151 858.679749 812.620300 835.650024 
830.715088 858.679749 809.330322 837.294983 
829.070068 860.324707 809.330322 827.425110 
824.135132 860.324707 812.620300 824.135132 
824.135132 858.679749 806.040344 825.780151 
824.135132 858.679749 809.330322 832.360046 
825.780151 857.034729 809.330322 832.360046 
827.425110 858.679749 810.975281 840.584961 
825.780151 858.679749 814.265259 840.584961 
820.845215 858.679749 809.330322 827.425110 
824.135132 860.324707 810.975281 835.650024 
825.780151 861.969727 810.975281 827.425110 
832.360046 861.969727 810.975281 830.715088 
830.715088 861.969727 812.620300 840.584961 
829.070068 860.324707 810.975281 837.294983 
825.780151 858.679749 812.620300 838.940002 
824.135132 858.679749 810.975281 834.005005 
825.780151 858.679749 810.975281 837.294983 
824.135132 857.034729 810.975281 830.715088 
822.490173 855.389771 809.330322 838.940002 
822.490173 855.389771 812.620300 840.584961 
812.620300 855.389771 810.975281 830.715088 
812.620300 853.744812 809.330322 832.360046 
812.620300 853.744812 810.975281 830.715088 
815.910278 855.389771 810.975281 838.940002 
819.200195 853.744812 810.975281 830.715088 
814.265259 857.034729 812.620300 837.294983 
820.845215 858.679749 814.265259 830.715088 
815.910278 855.389771 815.910278 834.005005 
814.265259 855.389771 812.620300 837.294983 
822.490173 857.034729 814.265259 840.584961 
817.555237 857.034729 810.975281 834.005005 
820.845215 860.324707 812.620300 834.005005 
817.555237 857.034729 812.620300 832.360046 
817.555237 858.679749 810.975281 837.294983 
819.200195 857.034729 812.620300 847.164856 
824.135132 860.324707 810.975281 850.454834 
825.780151 861.969727 812.620300 847.164856 
829.070068 860.324707 810.975281 847.164856 
824.135132 860.324707 809.330322 842.229919 
825.780151 858.679749 809.330322 838.940002 
819.200195 858.679749 809.330322 842.229919 
822.490173 860.324707 812.620300 840.584961 
822.490173 858.679749 810.975281 843.874939 
825.780151 858.679749 810.975281 838.940002 
819.200195 857.034729 809.330322 840.584961 
815.910278 857.034729 809.330322 842.229919 
815.910278 855.389771 809.330322 837.294983 
817.555237 857.034729 806.040344 830.715088 
820.845215 857.034729 809.330322 830.715088 
815.910278 857.034729 809.330322 835.650024 
817.555237 858.679749 809.330322 834.005005 
817.555237 857.034729 809.330322 830.715088 
820.845215 857.034729 807.685364 830.715088 
824.135132 857.034729 810.975281 834.005005 
819.200195 857.034729 812.620300 840.584961 
822.490173 857.034729 810.975281 835.650024 
819.200195 857.034729 810.975281 827.425110 
822.490173 858.679749 810.975281 834.005005 
817.555237 857.034729 812.620300 838.940002 
824.135132 857.034729 814.265259 835.650024 
824.135132 858.679749 814.265259 837.294983 
825.780151 857.034729 814.265259 832.360046 
825.780151 857.034729 812.620300 837.294983 
824.135132 858.679749 814.265259 834.005005 
819.200195 857.034729 810.975281 827.425110 
822.490173 858.679749 812.620300 830.715088 
814.265259 857.034729 810.975281 829.070068 
815.910278 858.679749 810.975281 829.070068 
824.135132 860.324707 812.620300 830.715088 
822.490173 858.679749 810.975281 829.070068 
820.845215 860.324707 812.620300 835.650024 
824.135132 860.324707 810.975281 832.360046 
827.425110 860.324707 812.620300 830.715088 
827.425110 860.324707 812.620300 837.294983 
832.360046 858.679749 812.620300 837.294983 
827.425110 858.679749 814.265259 842.229919 
824.135132 858.679749 814.265259 842.229919 
830.715088 857.034729 815.910278 845.519897 
830.715088 858.679749 812.620300 842.229919 
832.360046 858.679749 812.620300 845.519897 
832.360046 858.679749 815.910278 845.519897 
827.425110 855.389771 815.910278 847.164856 
820.845215 855.389771 815.910278 843.874939 
820.845215 853.744812 814.265259 837.294983 
819.200195 853.744812 812.620300 834.005005 
820.845215 855.389771 812.620300 830.715088 
819.200195 852.099792 810.975281 829.070068 
825.780151 853.744812 814.265259 838.940002 
822.490173 853.744812 814.265259 837.294983 
819.200195 855.389771 814.265259 830.715088 
817.555237 855.389771 815.910278 830.715088 
819.200195 855.389771 815.910278 829.070068 
820.845215 857.034729 814.265259 832.360046 
824.135132 855.389771 815.910278 838.940002 
820.845215 857.034729 814.265259 834.005005 
815.910278 853.744812 812.620300 824.135132 
820.845215 852.099792 814.265259 830.715088 
820.845215 853.744812 815.910278 835.650024 
822.490173 855.389771 815.910278 832.360046 
825.780151 857.034729 815.910278 838.940002 
829.070068 857.034729 815.910278 835.650024 
827.425110 857.034729 815.910278 840.584961 
824.135132 855.389771 814.265259 837.294983 
824.135132 857.034729 814.265259 830.715088 
820.845215 855.389771 812.620300 830.715088 
817.555237 853.744812 812.620300 825.780151 
817.555237 852.099792 815.910278 837.294983 
815.910278 852.099792 815.910278 834.005005 
817.555237 852.099792 812.620300 830.715088 
820.845215 853.744812 809.330322 827.425110 
815.910278 853.744812 809.330322 830.715088 
819.200195 850.454834 810.975281 829.070068 
817.555237 850.454834 809.330322 834.005005 
812.620300 847.164856 810.975281 832.360046 
814.265259 848.809875 810.975281 835.650024 
814.265259 850.454834 814.265259 830.715088 
817.555237 850.454834 814.265259 829.070068 
825.780151 852.099792 814.265259 832.360046 
819.200195 852.099792 812.620300 834.005005 
814.265259 850.454834 812.620300 837.294983 
814.265259 852.099792 814.265259 834.005005 
817.555237 852.099792 812.620300 829.070068 
819.200195 852.099792 810.975281 822.490173 
819.200195 848.809875 814.265259 827.425110 
814.265259 850.454834 814.265259 827.425110 
814.265259 848.809875 810.975281 822.490173 
815.910278 848.809875 814.265259 830.715088 
819.200195 848.809875 814.265259 837.294983 
820.845215 848.809875 812.620300 842.229919 
817.555237 847.164856 814.265259 830.715088 
815.910278 848.809875 812.620300 837.294983 
815.910278 845.519897 812.620300 825.780151 
814.265259 842.229919 814.265259 830.715088 
809.330322 845.519897 812.620300 835.650024 
806.040344 843.874939 812.620300 832.360046 
807.685364 843.874939 812.620300 830.715088 
812.620300 845.519897 814.265259 830.715088 
814.265259 842.229919 812.620300 837.294983 
809.330322 842.229919 812.620300 829.070068 
806.040344 842.229919 812.620300 832.360046 
809.330322 838.940002 814.265259 832.360046 
809.330322 843.874939 815.910278 835.650024 
807.685364 843.874939 814.265259 838.940002 
810.975281 845.519897 815.910278 834.005005 
812.620300 843.874939 814.265259 829.070068 
814.265259 842.229919 812.620300 822.490173 
815.910278 842.229919 812.620300 825.780151 
810.975281 842.229919 812.620300 832.360046 
809.330322 842.229919 815.910278 835.650024 
810.975281 840.584961 812.620300 834.005005 
814.265259 843.874939 812.620300 835.650024 
817.555237 845.519897 812.620300 838.940002 
825.780151 847.164856 815.910278 837.294983 
824.135132 847.164856 815.910278 834.005005 
824.135132 845.519897 814.265259 825.780151 
825.780151 842.229919 814.265259 825.780151 
827.425110 842.229919 810.975281 820.845215 
827.425110 842.229919 817.555237 829.070068 
819.200195 842.229919 817.555237 830.715088 
