834.005005 852.099792 814.265259 832.360046 
837.294983 852.099792 812.620300 834.005005 
835.650024 853.744812 812.620300 830.715088 
837.294983 852.099792 814.265259 837.294983 
837.294983 852.099792 814.265259 838.940002 
838.940002 852.099792 812.620300 835.650024 
842.229919 853.744812 815.910278 842.229919 
840.584961 855.389771 814.265259 837.294983 
838.940002 853.744812 812.620300 837.294983 
830.715088 850.454834 812.620300 835.650024 
832.360046 852.099792 812.620300 837.294983 
834.005005 853.744812 812.620300 838.940002 
832.360046 853.744812 812.620300 840.584961 
830.715088 855.389771 812.620300 837.294983 
830.715088 853.744812 814.265259 835.650024 
829.070068 855.389771 815.910278 835.650024 
830.715088 855.389771 815.910278 834.005005 
827.425110 853.744812 814.265259 835.650024 
822.490173 853.744812 815.910278 838.940002 
825.780151 853.744812 814.265259 837.294983 
827.425110 853.744812 815.910278 838.940002 
834.005005 855.389771 814.265259 843.874939 
834.005005 855.389771 812.620300 843.874939 
832.360046 857.034729 814.265259 842.229919 
830.715088 855.389771 814.265259 842.229919 
830.715088 855.389771 814.265259 843.874939 
830.715088 853.744812 814.265259 838.940002 
835.650024 855.389771 814.265259 843.874939 
835.650024 857.034729 814.265259 843.874939 
837.294983 858.679749 814.265259 842.229919 
834.005005 858.679749 815.910278 848.809875 
835.650024 857.034729 817.555237 848.809875 
835.650024 857.034729 815.910278 843.874939 
835.650024 857.034729 815.910278 838.940002 
830.715088 858.679749 817.555237 848.809875 
832.360046 858.679749 817.555237 842.229919 
830.715088 858.679749 817.555237 838.940002 
827.425110 857.034729 815.910278 837.294983 
827.425110 858.679749 814.265259 837.294983 
822.490173 858.679749 814.265259 837.294983 
824.135132 858.679749 815.910278 835.650024 
827.425110 858.679749 812.620300 830.715088 
824.135132 858.679749 812.620300 832.360046 
822.490173 857.034729 812.620300 825.780151 
827.425110 857.034729 812.620300 832.360046 
829.070068 857.034729 815.910278 834.005005 
827.425110 858.679749 814.265259 827.425110 
830.715088 858.679749 814.265259 837.294983 
829.070068 860.324707 814.265259 835.650024 
835.650024 860.324707 815.910278 840.584961 
840.584961 860.324707 814.265259 843.874939 
837.294983 860.324707 812.620300 838.940002 
834.005005 857.034729 812.620300 835.650024 
827.425110 857.034729 812.620300 830.715088 
829.070068 857.034729 810.975281 837.294983 
825.780151 857.034729 812.620300 834.005005 
827.425110 857.034729 812.620300 830.715088 
832.360046 858.679749 810.975281 837.294983 
829.070068 857.034729 810.975281 832.360046 
829.070068 857.034729 809.330322 829.070068 
829.070068 860.324707 810.975281 832.360046 
834.005005 861.969727 812.620300 834.005005 
837.294983 861.969727 815.910278 830.715088 
830.715088 861.969727 810.975281 832.360046 
830.715088 861.969727 810.975281 827.425110 
832.360046 861.969727 812.620300 827.425110 
837.294983 861.969727 812.620300 834.005005 
837.294983 861.969727 810.975281 834.005005 
842.229919 861.969727 812.620300 835.650024 
835.650024 861.969727 810.975281 838.940002 
837.294983 861.969727 810.975281 835.650024 
838.940002 860.324707 810.975281 834.005005 
830.715088 860.324707 810.975281 832.360046 
835.650024 860.324707 809.330322 834.005005 
835.650024 858.679749 810.975281 835.650024 
838.940002 860.324707 810.975281 835.650024 
834.005005 861.969727 812.620300 837.294983 
834.005005 858.679749 810.975281 840.584961 
838.940002 860.324707 814.265259 840.584961 
832.360046 861.969727 814.265259 837.294983 
832.360046 860.324707 812.620300 830.715088 
835.650024 861.969727 814.265259 834.005005 
835.650024 861.969727 815.910278 834.005005 
834.005005 860.324707 814.265259 837.294983 
834.005005 861.969727 814.265259 835.650024 
830.715088 861.969727 814.265259 830.715088 
827.425110 860.324707 809.330322 827.425110 
827.425110 860.324707 810.975281 830.715088 
832.360046 860.324707 812.620300 830.715088 
830.715088 858.679749 810.975281 832.360046 
834.005005 857.034729 810.975281 834.005005 
834.005005 858.679749 812.620300 834.005005 
832.360046 860.324707 812.620300 834.005005 
830.715088 857.034729 814.265259 835.650024 
832.360046 858.679749 815.910278 832.360046 
834.005005 860.324707 815.910278 838.940002 
834.005005 858.679749 814.265259 835.650024 
835.650024 860.324707 812.620300 835.650024 
832.360046 861.969727 809.330322 840.584961 
830.715088 860.324707 814.265259 838.940002 
834.005005 861.969727 814.265259 840.584961 
837.294983 863.614685 817.555237 840.584961 
837.294983 861.969727 817.555237 837.294983 
832.360046 858.679749 814.265259 835.650024 
832.360046 858.679749 815.910278 835.650024 
835.650024 858.679749 817.555237 842.229919 
834.005005 858.679749 817.555237 838.940002 
837.294983 860.324707 819.200195 840.584961 
837.294983 858.679749 819.200195 835.650024 
838.940002 861.969727 815.910278 838.940002 
845.519897 863.614685 814.265259 843.874939 
843.874939 861.969727 815.910278 847.164856 
840.584961 860.324707 812.620300 843.874939 
837.294983 858.679749 815.910278 840.584961 
832.360046 858.679749 815.910278 847.164856 
840.584961 858.679749 817.555237 848.809875 
845.519897 860.324707 819.200195 848.809875 
845.519897 861.969727 817.555237 843.874939 
847.164856 865.259644 815.910278 850.454834 
840.584961 865.259644 814.265259 848.809875 
842.229919 863.614685 820.845215 853.744812 
838.940002 861.969727 817.555237 850.454834 
835.650024 861.969727 815.910278 843.874939 
838.940002 861.969727 817.555237 852.099792 
835.650024 861.969727 817.555237 845.519897 
835.650024 861.969727 817.555237 842.229919 
837.294983 858.679749 817.555237 847.164856 
830.715088 858.679749 817.555237 837.294983 
835.650024 858.679749 815.910278 840.584961 
835.650024 858.679749 817.555237 843.874939 
832.360046 858.679749 814.265259 835.650024 
834.005005 857.034729 814.265259 838.940002 
832.360046 858.679749 814.265259 830.715088 
832.360046 857.034729 815.910278 832.360046 
834.005005 855.389771 809.330322 834.005005 
837.294983 858.679749 812.620300 835.650024 
843.874939 857.034729 815.910278 834.005005 
848.809875 857.034729 814.265259 830.715088 
855.389771 860.324707 812.620300 840.584961 
863.614685 860.324707 815.910278 845.519897 
858.679749 860.324707 817.555237 848.809875 
848.809875 858.679749 820.845215 853.744812 
838.940002 855.389771 819.200195 857.034729 
829.070068 855.389771 819.200195 855.389771 
827.425110 853.744812 819.200195 857.034729 
825.780151 853.744812 819.200195 853.744812 
824.135132 853.744812 817.555237 845.519897 
822.490173 852.099792 814.265259 852.099792 
825.780151 855.389771 817.555237 847.164856 
832.360046 855.389771 817.555237 845.519897 
832.360046 857.034729 819.200195 847.164856 
834.005005 855.389771 817.555237 847.164856 
832.360046 853.744812 819.200195 845.519897 
829.070068 852.099792 819.200195 845.519897 
834.005005 852.099792 820.845215 840.584961 
835.650024 853.744812 822.490173 842.229919 
834.005005 853.744812 820.845215 847.164856 
832.360046 850.454834 819.200195 843.874939 
835.650024 852.099792 815.910278 848.809875 
835.650024 853.744812 817.555237 845.519897 
838.940002 852.099792 817.555237 842.229919 
834.005005 852.099792 820.845215 843.874939 
834.005005 852.099792 824.135132 845.519897 
834.005005 852.099792 820.845215 848.809875 
830.715088 850.454834 822.490173 852.099792 
830.715088 850.454834 819.200195 852.099792 
830.715088 850.454834 817.555237 843.874939 
829.070068 847.164856 815.910278 847.164856 
829.070068 848.809875 817.555237 845.519897 
827.425110 850.454834 819.200195 840.584961 
832.360046 852.099792 820.845215 840.584961 
834.005005 855.389771 822.490173 842.229919 
832.360046 852.099792 819.200195 835.650024 
835.650024 852.099792 819.200195 842.229919 
835.650024 852.099792 819.200195 838.940002 
834.005005 848.809875 817.555237 837.294983 
832.360046 848.809875 820.845215 845.519897 
829.070068 848.809875 819.200195 840.584961 
832.360046 848.809875 820.845215 843.874939 
835.650024 855.389771 819.200195 843.874939 
834.005005 850.454834 819.200195 840.584961 
832.360046 850.454834 819.200195 848.809875 
835.650024 853.744812 817.555237 848.809875 
835.650024 852.099792 820.845215 847.164856 
837.294983 853.744812 817.555237 852.099792 
837.294983 853.744812 820.845215 852.099792 
832.360046 852.099792 817.555237 847.164856 
830.715088 850.454834 819.200195 847.164856 
835.650024 850.454834 820.845215 843.874939 
834.005005 850.454834 817.555237 832.360046 
834.005005 852.099792 819.200195 834.005005 
837.294983 852.099792 817.555237 835.650024 
835.650024 852.099792 822.490173 835.650024 
838.940002 853.744812 822.490173 842.229919 
840.584961 853.744812 819.200195 838.940002 
842.229919 855.389771 817.555237 838.940002 
834.005005 850.454834 817.555237 837.294983 
837.294983 852.099792 819.200195 842.229919 
840.584961 850.454834 817.555237 838.940002 
838.940002 853.744812 817.555237 840.584961 
837.294983 853.744812 819.200195 843.874939 
838.940002 852.099792 819.200195 845.519897 
838.940002 850.454834 822.490173 848.809875 
838.940002 850.454834 822.490173 838.940002 
835.650024 848.809875 820.845215 838.940002 
834.005005 848.809875 820.845215 837.294983 
834.005005 850.454834 820.845215 840.584961 
830.715088 847.164856 820.845215 835.650024 
827.425110 847.164856 819.200195 838.940002 
825.780151 847.164856 820.845215 840.584961 
827.425110 845.519897 822.490173 838.940002 
830.715088 842.229919 820.845215 840.584961 
827.425110 845.519897 822.490173 835.650024 
822.490173 845.519897 822.490173 830.715088 
820.845215 845.519897 819.200195 830.715088 
825.780151 845.519897 820.845215 835.650024 
822.490173 842.229919 824.135132 832.360046 
822.490173 842.229919 824.135132 834.005005 
824.135132 842.229919 825.780151 838.940002 
824.135132 843.874939 825.780151 840.584961 
825.780151 845.519897 825.780151 840.584961 
829.070068 845.519897 827.425110 838.940002 
829.070068 845.519897 827.425110 840.584961 
824.135132 843.874939 829.070068 845.519897 
825.780151 842.229919 824.135132 848.809875 
822.490173 843.874939 825.780151 842.229919 
827.425110 845.519897 827.425110 848.809875 
837.294983 847.164856 825.780151 850.454834 
835.650024 847.164856 827.425110 847.164856 
832.360046 847.164856 827.425110 852.099792 
832.360046 847.164856 827.425110 852.099792 
829.070068 847.164856 827.425110 845.519897 
829.070068 845.519897 822.490173 845.519897 
825.780151 845.519897 827.425110 837.294983 
827.425110 845.519897 825.780151 835.650024 
824.135132 843.874939 824.135132 830.715088 
827.425110 845.519897 827.425110 840.584961 
827.425110 843.874939 824.135132 840.584961 
827.425110 843.874939 825.780151 838.940002 
829.070068 843.874939 825.780151 842.229919 
829.070068 845.519897 824.135132 838.940002 
832.360046 845.519897 824.135132 840.584961 
825.780151 843.874939 825.780151 840.584961 
824.135132 843.874939 825.780151 835.650024 
827.425110 845.519897 824.135132 834.005005 
825.780151 843.874939 824.135132 840.584961 
827.425110 843.874939 824.135132 847.164856 
830.715088 843.874939 825.780151 845.519897 
829.070068 842.229919 825.780151 837.294983 
829.070068 843.874939 824.135132 840.584961 
827.425110 845.519897 822.490173 840.584961 
825.780151 843.874939 820.845215 843.874939 
827.425110 843.874939 822.490173 842.229919 
830.715088 845.519897 822.490173 838.940002 
834.005005 843.874939 827.425110 845.519897 
827.425110 843.874939 825.780151 842.229919 
824.135132 843.874939 822.490173 835.650024 
825.780151 842.229919 825.780151 837.294983 
829.070068 843.874939 825.780151 840.584961 
829.070068 843.874939 827.425110 843.874939 
830.715088 845.519897 827.425110 842.229919 
830.715088 843.874939 825.780151 843.874939 
829.070068 847.164856 824.135132 832.360046 
834.005005 847.164856 825.780151 840.584961 
825.780151 845.519897 827.425110 838.940002 
824.135132 845.519897 829.070068 838.940002 
827.425110 845.519897 825.780151 838.940002 
824.135132 843.874939 825.780151 835.650024 
824.135132 845.519897 825.780151 843.874939 
824.135132 845.519897 825.780151 843.874939 
824.135132 843.874939 827.425110 840.584961 
830.715088 843.874939 824.135132 835.650024 
834.005005 843.874939 825.780151 842.229919 
834.005005 845.519897 824.135132 847.164856 
832.360046 847.164856 822.490173 842.229919 
830.715088 847.164856 820.845215 838.940002 
835.650024 848.809875 822.490173 835.650024 
834.005005 847.164856 825.780151 845.519897 
834.005005 850.454834 825.780151 847.164856 
837.294983 850.454834 825.780151 850.454834 
832.360046 847.164856 822.490173 847.164856 
832.360046 848.809875 824.135132 847.164856 
832.360046 848.809875 824.135132 845.519897 
830.715088 848.809875 822.490173 837.294983 
835.650024 848.809875 822.490173 840.584961 
835.650024 850.454834 822.490173 847.164856 
832.360046 848.809875 825.780151 842.229919 
829.070068 847.164856 825.780151 848.809875 
830.715088 847.164856 822.490173 842.229919 
830.715088 847.164856 822.490173 843.874939 
830.715088 847.164856 822.490173 843.874939 
830.715088 848.809875 822.490173 838.940002 
829.070068 848.809875 822.490173 837.294983 
829.070068 847.164856 820.845215 834.005005 
827.425110 847.164856 820.845215 832.360046 
825.780151 847.164856 822.490173 829.070068 
827.425110 845.519897 810.975281 829.070068 
827.425110 847.164856 774.785767 835.650024 
824.135132 847.164856 755.045959 829.070068 
825.780151 843.874939 738.596191 829.070068 
830.715088 845.519897 735.306213 835.650024 
832.360046 845.519897 740.241150 834.005005 
834.005005 848.809875 738.596191 837.294983 
832.360046 847.164856 740.241150 838.940002 
837.294983 845.519897 745.176086 838.940002 
838.940002 847.164856 753.401001 840.584961 
834.005005 848.809875 758.335938 834.005005 
832.360046 850.454834 763.270874 837.294983 
829.070068 847.164856 769.850830 838.940002 
825.780151 847.164856 773.140747 840.584961 
827.425110 847.164856 778.075684 840.584961 
825.780151 847.164856 786.300598 840.584961 
827.425110 847.164856 791.235535 843.874939 
829.070068 845.519897 792.880554 842.229919 
830.715088 842.229919 792.880554 838.940002 
824.135132 842.229919 797.815491 834.005005 
822.490173 843.874939 802.750427 837.294983 
822.490173 842.229919 804.395386 840.584961 
822.490173 847.164856 807.685364 837.294983 
817.555237 845.519897 807.685364 835.650024 
822.490173 843.874939 809.330322 838.940002 
820.845215 843.874939 812.620300 832.360046 
822.490173 845.519897 814.265259 834.005005 
822.490173 847.164856 814.265259 834.005005 
825.780151 845.519897 817.555237 838.940002 
829.070068 845.519897 815.910278 837.294983 
827.425110 847.164856 814.265259 837.294983 
827.425110 847.164856 817.555237 838.940002 
827.425110 847.164856 817.555237 837.294983 
824.135132 847.164856 820.845215 840.584961 
819.200195 845.519897 820.845215 835.650024 
820.845215 845.519897 824.135132 832.360046 
822.490173 847.164856 824.135132 835.650024 
822.490173 842.229919 824.135132 832.360046 
825.780151 843.874939 824.135132 832.360046 
832.360046 845.519897 822.490173 829.070068 
837.294983 843.874939 822.490173 827.425110 
842.229919 845.519897 824.135132 825.780151 
843.874939 845.519897 824.135132 824.135132 
830.715088 843.874939 824.135132 830.715088 
820.845215 843.874939 827.425110 834.005005 
820.845215 843.874939 830.715088 837.294983 
815.910278 842.229919 829.070068 834.005005 
815.910278 840.584961 830.715088 835.650024 
817.555237 842.229919 829.070068 837.294983 
817.555237 842.229919 827.425110 837.294983 
817.555237 845.519897 827.425110 832.360046 
815.910278 847.164856 827.425110 827.425110 
812.620300 838.940002 825.780151 825.780151 
812.620300 840.584961 825.780151 827.425110 
809.330322 838.940002 825.780151 827.425110 
812.620300 840.584961 824.135132 825.780151 
807.685364 842.229919 827.425110 825.780151 
807.685364 842.229919 827.425110 827.425110 
810.975281 842.229919 827.425110 830.715088 
815.910278 842.229919 825.780151 829.070068 
815.910278 842.229919 830.715088 832.360046 
815.910278 840.584961 825.780151 832.360046 
819.200195 842.229919 825.780151 837.294983 
819.200195 842.229919 827.425110 835.650024 
819.200195 840.584961 825.780151 830.715088 
817.555237 837.294983 827.425110 827.425110 
820.845215 838.940002 827.425110 829.070068 
820.845215 838.940002 825.780151 835.650024 
820.845215 840.584961 825.780151 829.070068 
822.490173 840.584961 825.780151 832.360046 
815.910278 840.584961 827.425110 829.070068 
815.910278 842.229919 827.425110 829.070068 
819.200195 842.229919 827.425110 830.715088 
820.845215 842.229919 830.715088 830.715088 
820.845215 843.874939 829.070068 832.360046 
817.555237 842.229919 827.425110 830.715088 
819.200195 843.874939 830.715088 835.650024 
822.490173 842.229919 829.070068 830.715088 
820.845215 840.584961 827.425110 835.650024 
820.845215 840.584961 827.425110 837.294983 
819.200195 838.940002 825.780151 832.360046 
820.845215 840.584961 827.425110 835.650024 
827.425110 842.229919 829.070068 838.940002 
820.845215 840.584961 827.425110 835.650024 
819.200195 838.940002 830.715088 837.294983 
820.845215 840.584961 830.715088 838.940002 
825.780151 838.940002 832.360046 840.584961 
832.360046 840.584961 832.360046 843.874939 
829.070068 840.584961 829.070068 842.229919 
825.780151 842.229919 827.425110 838.940002 
820.845215 840.584961 827.425110 830.715088 
820.845215 842.229919 827.425110 840.584961 
829.070068 840.584961 829.070068 838.940002 
832.360046 838.940002 827.425110 838.940002 
830.715088 840.584961 827.425110 837.294983 
832.360046 842.229919 829.070068 835.650024 
824.135132 840.584961 827.425110 837.294983 
829.070068 840.584961 829.070068 838.940002 
837.294983 842.229919 827.425110 843.874939 
837.294983 840.584961 825.780151 843.874939 
835.650024 840.584961 827.425110 847.164856 
827.425110 840.584961 825.780151 843.874939 
825.780151 838.940002 825.780151 838.940002 
827.425110 838.940002 822.490173 832.360046 
825.780151 840.584961 822.490173 832.360046 
824.135132 837.294983 822.490173 834.005005 
822.490173 835.650024 822.490173 832.360046 
824.135132 835.650024 824.135132 837.294983 
824.135132 838.940002 822.490173 827.425110 
820.845215 838.940002 825.780151 835.650024 
820.845215 838.940002 827.425110 837.294983 
824.135132 838.940002 822.490173 832.360046 
824.135132 838.940002 822.490173 835.650024 
825.780151 838.940002 824.135132 835.650024 
822.490173 838.940002 822.490173 840.584961 
824.135132 840.584961 824.135132 837.294983 
824.135132 840.584961 824.135132 837.294983 
824.135132 838.940002 825.780151 840.584961 
819.200195 837.294983 827.425110 838.940002 
819.200195 837.294983 827.425110 843.874939 
820.845215 837.294983 824.135132 835.650024 
820.845215 840.584961 824.135132 840.584961 
819.200195 840.584961 822.490173 835.650024 
819.200195 837.294983 820.845215 842.229919 
822.490173 837.294983 824.135132 845.519897 
819.200195 838.940002 822.490173 840.584961 
815.910278 838.940002 824.135132 838.940002 
814.265259 837.294983 827.425110 838.940002 
815.910278 838.940002 827.425110 837.294983 
815.910278 838.940002 825.780151 835.650024 
819.200195 838.940002 825.780151 834.005005 
812.620300 837.294983 824.135132 825.780151 
812.620300 837.294983 824.135132 824.135132 
819.200195 837.294983 827.425110 829.070068 
820.845215 838.940002 820.845215 834.005005 
820.845215 840.584961 820.845215 829.070068 
820.845215 837.294983 822.490173 834.005005 
822.490173 842.229919 822.490173 832.360046 
820.845215 840.584961 825.780151 840.584961 
822.490173 837.294983 820.845215 837.294983 
822.490173 838.940002 822.490173 840.584961 
820.845215 838.940002 824.135132 840.584961 
820.845215 840.584961 825.780151 835.650024 
817.555237 840.584961 824.135132 835.650024 
820.845215 838.940002 819.200195 835.650024 
815.910278 840.584961 822.490173 830.715088 
814.265259 843.874939 822.490173 832.360046 
815.910278 840.584961 820.845215 834.005005 
815.910278 840.584961 819.200195 830.715088 
815.910278 838.940002 819.200195 829.070068 
820.845215 840.584961 819.200195 834.005005 
817.555237 842.229919 820.845215 829.070068 
817.555237 840.584961 820.845215 827.425110 
824.135132 840.584961 820.845215 837.294983 
820.845215 843.874939 820.845215 835.650024 
819.200195 842.229919 820.845215 837.294983 
820.845215 842.229919 819.200195 838.940002 
822.490173 842.229919 820.845215 838.940002 
825.780151 838.940002 822.490173 843.874939 
827.425110 840.584961 822.490173 838.940002 
827.425110 842.229919 822.490173 837.294983 
827.425110 842.229919 824.135132 840.584961 
827.425110 842.229919 822.490173 847.164856 
827.425110 842.229919 824.135132 847.164856 
824.135132 838.940002 822.490173 843.874939 
820.845215 837.294983 819.200195 840.584961 
820.845215 840.584961 820.845215 842.229919 
820.845215 840.584961 820.845215 840.584961 
817.555237 840.584961 824.135132 838.940002 
819.200195 840.584961 822.490173 835.650024 
820.845215 840.584961 825.780151 838.940002 
817.555237 842.229919 822.490173 835.650024 
815.910278 842.229919 819.200195 832.360046 
817.555237 842.229919 819.200195 834.005005 
819.200195 843.874939 819.200195 827.425110 
815.910278 845.519897 822.490173 830.715088 
814.265259 847.164856 819.200195 824.135132 
810.975281 847.164856 817.555237 825.780151 
812.620300 847.164856 817.555237 830.715088 
820.845215 848.809875 819.200195 834.005005 
829.070068 848.809875 822.490173 837.294983 
830.715088 850.454834 819.200195 834.005005 
829.070068 848.809875 819.200195 838.940002 
830.715088 848.809875 819.200195 835.650024 
829.070068 850.454834 820.845215 840.584961 
829.070068 847.164856 819.200195 838.940002 
834.005005 848.809875 820.845215 840.584961 
832.360046 850.454834 819.200195 840.584961 
829.070068 852.099792 819.200195 837.294983 
832.360046 852.099792 822.490173 835.650024 
830.715088 850.454834 817.555237 835.650024 
829.070068 848.809875 815.910278 840.584961 
837.294983 850.454834 819.200195 842.229919 
832.360046 852.099792 815.910278 840.584961 
832.360046 855.389771 815.910278 837.294983 
827.425110 853.744812 817.555237 835.650024 
827.425110 852.099792 815.910278 838.940002 
824.135132 850.454834 815.910278 834.005005 
825.780151 852.099792 814.265259 830.715088 
824.135132 850.454834 817.555237 830.715088 
827.425110 852.099792 812.620300 837.294983 
832.360046 852.099792 815.910278 837.294983 
829.070068 852.099792 814.265259 835.650024 
825.780151 853.744812 809.330322 830.715088 
822.490173 853.744812 812.620300 827.425110 
829.070068 853.744812 814.265259 832.360046 
827.425110 853.744812 814.265259 829.070068 
825.780151 853.744812 817.555237 829.070068 
830.715088 853.744812 817.555237 840.584961 
829.070068 853.744812 814.265259 832.360046 
830.715088 853.744812 815.910278 834.005005 
830.715088 853.744812 814.265259 835.650024 
829.070068 853.744812 817.555237 832.360046 
834.005005 855.389771 817.555237 840.584961 
835.650024 855.389771 815.910278 838.940002 
842.229919 855.389771 819.200195 843.874939 
837.294983 853.744812 819.200195 840.584961 
837.294983 853.744812 819.200195 840.584961 
835.650024 855.389771 815.910278 838.940002 
830.715088 852.099792 817.555237 838.940002 
834.005005 850.454834 817.555237 838.940002 
832.360046 853.744812 819.200195 845.519897 
832.360046 855.389771 814.265259 840.584961 
830.715088 855.389771 817.555237 835.650024 
830.715088 853.744812 817.555237 850.454834 
832.360046 853.744812 817.555237 837.294983 
834.005005 855.389771 819.200195 843.874939 
834.005005 858.679749 815.910278 842.229919 
832.360046 857.034729 815.910278 843.874939 
832.360046 855.389771 819.200195 845.519897 
832.360046 853.744812 820.845215 843.874939 
832.360046 853.744812 817.555237 847.164856 
838.940002 855.389771 817.555237 843.874939 
834.005005 853.744812 819.200195 843.874939 
834.005005 857.034729 819.200195 843.874939 
835.650024 857.034729 819.200195 847.164856 
834.005005 855.389771 819.200195 848.809875 
832.360046 855.389771 815.910278 845.519897 
837.294983 855.389771 817.555237 840.584961 
835.650024 852.099792 819.200195 842.229919 
834.005005 853.744812 819.200195 850.454834 
837.294983 855.389771 817.555237 847.164856 
832.360046 855.389771 815.910278 843.874939 
835.650024 858.679749 817.555237 838.940002 
837.294983 855.389771 817.555237 835.650024 
842.229919 857.034729 815.910278 838.940002 
843.874939 857.034729 815.910278 837.294983 
847.164856 855.389771 815.910278 835.650024 
853.744812 855.389771 814.265259 837.294983 
853.744812 857.034729 815.910278 840.584961 
843.874939 855.389771 817.555237 840.584961 
830.715088 855.389771 817.555237 834.005005 
832.360046 853.744812 817.555237 843.874939 
830.715088 855.389771 819.200195 847.164856 
829.070068 855.389771 817.555237 850.454834 
822.490173 853.744812 817.555237 843.874939 
825.780151 855.389771 817.555237 842.229919 
827.425110 853.744812 810.975281 843.874939 
830.715088 852.099792 792.880554 842.229919 
832.360046 852.099792 778.075684 847.164856 
827.425110 850.454834 771.495789 837.294983 
830.715088 853.744812 771.495789 840.584961 
840.584961 855.389771 769.850830 842.229919 
837.294983 855.389771 758.335938 842.229919 
829.070068 855.389771 738.596191 834.005005 
829.070068 855.389771 741.886108 835.650024 
829.070068 855.389771 758.335938 834.005005 
825.780151 853.744812 773.140747 837.294983 
829.070068 852.099792 786.300598 840.584961 
829.070068 852.099792 789.590576 842.229919 
829.070068 852.099792 791.235535 838.940002 
830.715088 853.744812 792.880554 834.005005 
834.005005 855.389771 796.170471 835.650024 
835.650024 855.389771 794.525513 840.584961 
835.650024 857.034729 796.170471 838.940002 
835.650024 857.034729 799.460449 838.940002 
835.650024 855.389771 801.105408 838.940002 
830.715088 853.744812 802.750427 840.584961 
835.650024 853.744812 804.395386 843.874939 
840.584961 853.744812 814.265259 848.809875 
837.294983 853.744812 814.265259 840.584961 
834.005005 855.389771 815.910278 835.650024 
829.070068 853.744812 815.910278 838.940002 
832.360046 853.744812 814.265259 838.940002 
834.005005 855.389771 814.265259 838.940002 
835.650024 853.744812 815.910278 837.294983 
829.070068 853.744812 819.200195 832.360046 
830.715088 855.389771 819.200195 835.650024 
829.070068 853.744812 819.200195 832.360046 
832.360046 853.744812 820.845215 834.005005 
835.650024 855.389771 820.845215 829.070068 
838.940002 855.389771 819.200195 825.780151 
837.294983 857.034729 817.555237 832.360046 
840.584961 857.034729 820.845215 834.005005 
838.940002 855.389771 820.845215 837.294983 
837.294983 855.389771 822.490173 837.294983 
837.294983 853.744812 824.135132 837.294983 
838.940002 853.744812 822.490173 838.940002 
840.584961 855.389771 827.425110 837.294983 
838.940002 853.744812 830.715088 838.940002 
837.294983 855.389771 829.070068 834.005005 
834.005005 855.389771 827.425110 829.070068 
835.650024 855.389771 830.715088 835.650024 
840.584961 855.389771 827.425110 837.294983 
