828.247620 848.809845 815.910248 838.939972 
835.649994 849.632355 816.732758 835.650024 
833.182526 849.632324 815.910278 838.939972 
834.005035 847.987366 817.555237 843.052429 
829.892578 849.632324 819.200195 839.762482 
824.135132 847.987366 819.200226 841.407440 
824.957642 851.277313 815.910248 838.117493 
829.070099 848.809845 816.732758 836.472504 
829.070099 847.987366 815.087769 836.472504 
824.957642 848.809845 816.732758 835.649994 
822.490173 847.164886 817.555237 837.294983 
826.602631 847.987366 818.377716 836.472504 
830.715057 847.987366 818.377716 839.762482 
833.182526 849.632355 817.555237 838.117493 
834.827545 847.987366 818.377716 838.117493 
827.425110 847.164856 813.442780 830.715088 
827.425110 846.342377 815.087769 838.939972 
825.780151 847.164886 815.910278 841.407440 
827.425110 847.987366 818.377716 838.939972 
828.247589 848.809875 819.200195 842.229919 
832.360046 848.809845 816.732758 834.827515 
834.005035 847.164886 815.910278 835.650024 
832.360046 848.809875 815.087769 840.584961 
832.360046 848.809845 817.555237 834.827515 
825.780151 847.164856 815.910278 832.360046 
829.892578 847.164886 816.732727 838.117493 
830.715088 847.164886 817.555237 840.584961 
835.650024 847.164886 817.555237 838.117493 
834.005035 847.164886 815.910278 840.584961 
830.715057 846.342407 815.910248 839.762482 
834.827515 845.519897 816.732758 835.649994 
833.182556 847.987366 816.732758 838.117493 
839.762482 849.632355 820.022705 834.827515 
841.407440 849.632355 819.200195 832.360046 
832.360046 849.632324 819.200195 840.584961 
832.360046 847.987366 818.377716 838.939972 
834.005035 848.809875 816.732758 833.182556 
833.182556 847.987366 817.555237 836.472504 
831.537567 846.342377 816.732727 833.182526 
829.070099 847.987366 818.377716 839.762451 
829.070068 845.519897 817.555237 837.295013 
829.070099 844.697418 816.732727 837.294983 
833.182526 847.164886 817.555237 834.005005 
828.247589 847.164886 819.200226 837.295013 
818.377716 843.052429 820.022705 841.407471 
825.780121 843.874908 816.732758 835.650024 
829.070099 845.519897 818.377747 835.650024 
829.892578 846.342377 817.555237 832.360046 
831.537567 847.987366 816.732758 833.182526 
831.537567 847.987366 816.732758 835.649994 
831.537567 845.519897 817.555237 838.939972 
833.182526 848.809845 816.732727 834.005035 
832.360046 846.342377 816.732727 835.649994 
831.537567 845.519897 815.910248 834.827515 
830.715088 845.519897 815.910278 836.472504 
829.892578 844.697418 816.732758 836.472504 
829.892578 845.519897 818.377716 834.827515 
827.425110 845.519897 818.377716 835.650024 
824.135162 843.052429 815.087769 837.294983 
825.780151 843.874939 815.087769 835.650024 
831.537567 847.164886 817.555237 838.117493 
834.005035 846.342377 817.555237 838.117493 
833.182526 847.987366 818.377716 838.939972 
832.360046 847.164856 818.377716 846.342377 
826.602600 846.342377 817.555237 838.939972 
824.957642 846.342377 818.377716 835.650024 
824.957642 847.987366 819.200226 838.939972 
827.425110 846.342377 819.200195 838.117462 
825.780121 847.164886 818.377716 836.472504 
824.957642 846.342407 818.377716 838.117493 
826.602631 845.519897 818.377716 841.407440 
821.667664 845.519897 817.555237 836.472504 
824.957642 847.164886 819.200226 840.584961 
829.070099 845.519897 819.200226 832.360046 
829.892578 844.697388 821.667694 837.294983 
831.537567 843.874908 822.490173 843.052429 
829.070099 844.697418 820.845184 838.117493 
825.780121 845.519897 818.377716 837.294983 
826.602600 845.519897 820.022705 834.827515 
824.957642 846.342377 820.845184 836.472504 
826.602631 846.342377 820.022705 837.295013 
828.247589 847.164886 820.022705 834.005035 
822.490173 847.164886 819.200195 839.762451 
823.312653 846.342377 819.200195 838.117493 
826.602631 846.342377 817.555237 837.294983 
827.425110 847.987366 819.200226 838.117493 
828.247589 848.809845 816.732758 835.650024 
829.892578 848.809845 817.555237 839.762451 
829.892578 849.632355 818.377716 839.762451 
830.715088 848.809845 817.555237 835.650024 
828.247589 847.987366 818.377747 835.649994 
831.537537 847.987366 818.377716 834.827515 
831.537567 844.697418 816.732727 838.939972 
833.182556 845.519897 818.377716 839.762482 
834.005035 847.164886 818.377716 837.294983 
830.715057 848.809845 820.022705 840.584961 
820.845184 847.987366 820.845215 838.939972 
825.780151 847.164856 820.845215 843.874908 
828.247589 847.987366 818.377716 841.407440 
829.892578 850.454834 818.377747 839.762482 
834.005035 849.632355 819.200226 838.117493 
831.537567 847.987366 820.022705 836.472504 
832.360077 847.164886 819.200195 839.762482 
832.360046 846.342377 819.200226 836.472504 
829.070099 845.519897 820.845215 832.360046 
820.022705 845.519897 819.200195 833.182526 
820.022705 845.519897 820.845215 837.294983 
824.957642 847.987366 820.845184 838.117493 
825.780151 847.164856 818.377716 832.360046 
829.070099 846.342377 816.732758 830.715088 
829.070099 847.164886 820.022705 832.360077 
827.425110 847.987366 818.377716 834.827515 
830.715088 847.987366 819.200226 837.295013 
829.070099 847.987366 819.200226 835.649994 
824.135162 847.164886 820.022705 833.182526 
824.135132 845.519897 819.200226 838.939972 
825.780151 847.164886 819.200226 837.295013 
825.780151 846.342407 817.555237 836.472504 
827.425110 847.164886 816.732758 834.827515 
824.957642 846.342407 818.377716 836.472504 
824.957642 846.342407 819.200226 834.827515 
831.537567 846.342407 820.845184 836.472504 
828.247589 846.342377 820.022705 835.650024 
823.312653 847.164886 820.845184 835.650024 
823.312683 847.987366 819.200195 831.537537 
824.135132 848.809875 818.377716 834.827515 
825.780151 848.809845 819.200195 839.762451 
827.425110 847.987366 820.022705 839.762482 
827.425110 844.697388 818.377747 841.407471 
825.780121 844.697418 818.377747 836.472504 
830.715057 847.987366 818.377747 837.294983 
829.892578 845.519897 819.200226 838.117462 
826.602631 847.164886 817.555237 838.939972 
824.135162 845.519897 815.910278 842.229950 
823.312653 843.874908 815.087769 835.649994 
827.425110 845.519897 815.910248 835.650024 
825.780151 844.697388 816.732727 836.472504 
829.070099 845.519897 818.377716 833.182526 
826.602631 845.519897 815.910278 833.182526 
824.957642 847.987366 817.555237 843.874908 
824.135162 847.164886 817.555237 838.117493 
821.667694 844.697388 818.377747 847.164886 
825.780151 844.697388 818.377716 843.874908 
834.005035 846.342377 818.377716 840.584961 
837.294983 847.987366 820.022705 843.052429 
838.939972 848.809875 820.022705 842.229950 
838.117493 847.987366 820.845184 846.342407 
831.537567 847.164856 817.555237 848.809875 
832.360046 847.987366 820.022705 847.164886 
832.360046 848.809875 819.200226 843.874908 
834.005035 847.987366 818.377716 840.584961 
835.650024 848.809875 820.022705 843.052429 
835.650024 848.809845 818.377716 836.472504 
831.537567 847.987366 819.200226 843.052429 
828.247589 847.164856 819.200226 838.939972 
828.247620 847.164856 818.377716 837.295013 
828.247589 848.809875 816.732758 838.117493 
826.602631 849.632355 816.732758 824.135162 
825.780151 847.987366 818.377716 835.649994 
828.247620 847.987366 819.200195 839.762482 
828.247589 847.987366 817.555237 841.407440 
829.892578 845.519897 817.555237 842.229950 
834.827545 846.342377 817.555237 830.715057 
840.584961 847.987366 816.732758 834.827515 
843.874908 846.342377 817.555237 843.052429 
836.472504 846.342377 818.377747 840.584961 
834.827515 846.342377 817.555237 838.117493 
838.117493 847.987366 819.200226 839.762451 
838.117493 846.342377 818.377747 841.407440 
837.294983 846.342377 817.555237 838.117493 
834.005035 846.342377 820.022705 840.584930 
829.892578 847.164856 820.022705 845.519897 
829.070099 847.987366 820.022705 841.407440 
829.892578 847.987366 820.845184 838.940002 
825.780151 845.519897 819.200195 835.649994 
820.845184 845.519897 820.845184 836.472504 
820.845184 845.519897 819.200226 832.360046 
826.602600 846.342377 816.732727 838.939972 
829.070099 847.987366 818.377747 833.182526 
830.715057 849.632355 816.732727 833.182526 
833.182526 848.809875 819.200195 841.407471 
831.537567 846.342377 819.200226 833.182526 
829.070068 846.342377 817.555237 834.827545 
827.425110 846.342377 818.377716 842.229919 
827.425110 845.519897 819.200226 840.584961 
824.957642 847.164856 817.555237 842.229950 
828.247589 845.519897 817.555237 834.827515 
836.472504 847.987366 818.377716 833.182526 
836.472504 847.987366 819.200195 834.005035 
837.294983 847.987366 818.377716 832.360046 
838.939972 847.987366 819.200195 834.005035 
838.939972 848.809875 817.555237 831.537567 
840.584930 847.987366 815.910248 827.425110 
834.005035 847.164856 818.377747 834.005035 
830.715088 847.164886 818.377747 836.472504 
829.070099 846.342407 819.200226 835.650024 
825.780121 846.342407 818.377716 836.472504 
830.715088 845.519897 819.200195 836.472504 
827.425110 846.342377 817.555237 835.650024 
828.247620 845.519897 819.200195 838.117493 
827.425110 845.519897 818.377716 837.294983 
827.425110 848.809875 818.377716 835.650024 
828.247589 848.809875 820.845184 834.827515 
828.247589 848.809845 819.200195 838.117493 
825.780121 847.164886 820.022705 835.649994 
826.602600 847.164856 819.200195 833.182526 
828.247589 845.519897 817.555237 840.584961 
828.247589 845.519897 818.377716 831.537567 
836.472504 845.519897 818.377716 842.229950 
838.117493 845.519897 817.555237 836.472504 
832.360046 846.342377 819.200195 843.052429 
827.425110 845.519897 820.022705 838.939972 
826.602631 845.519897 819.200195 836.472504 
823.312653 844.697418 816.732727 836.472504 
826.602631 845.519897 820.022705 838.117462 
831.537567 845.519897 817.555237 841.407471 
829.892578 844.697388 820.022705 839.762482 
823.312653 843.874908 816.732758 833.182526 
827.425110 843.052429 816.732758 833.182526 
829.892578 843.052429 815.910248 836.472504 
829.070099 842.229919 816.732758 836.472504 
836.472504 844.697418 817.555237 834.827515 
832.360046 845.519897 818.377716 837.295013 
834.005035 845.519897 817.555237 837.294983 
834.005035 845.519897 815.910248 838.939972 
829.070099 843.874939 818.377747 840.584961 
828.247620 842.229919 816.732727 836.472504 
826.602631 843.052429 818.377716 837.294983 
829.070099 844.697418 817.555237 836.472504 
833.182526 846.342377 816.732758 837.295013 
833.182556 848.809845 817.555237 834.005035 
838.117493 847.164886 818.377716 834.005035 
836.472504 846.342377 820.022705 834.827515 
831.537567 846.342377 818.377716 842.229950 
827.425110 845.519897 818.377716 838.939972 
825.780121 844.697418 818.377716 841.407471 
829.892578 845.519897 816.732758 836.472504 
834.005035 847.987366 820.022705 838.939972 
827.425110 845.519897 819.200195 841.407440 
827.425110 846.342377 820.022705 839.762451 
828.247589 843.874908 818.377716 836.472504 
828.247589 843.052429 816.732758 832.360046 
829.070099 845.519897 815.910278 833.182556 
825.780121 844.697418 818.377716 834.827515 
823.312683 845.519897 818.377716 833.182556 
827.425110 846.342377 816.732758 829.892578 
830.715088 847.164886 817.555237 832.360046 
830.715088 847.987366 816.732758 834.005035 
828.247620 846.342377 816.732758 838.939972 
829.070099 845.519897 817.555237 835.649994 
829.070099 846.342377 819.200226 840.584961 
829.892578 846.342377 818.377716 840.584961 
832.360046 846.342377 820.022705 843.052429 
831.537537 847.164856 818.377716 839.762482 
828.247620 847.987366 816.732758 834.005035 
832.360077 847.987366 816.732758 834.005035 
827.425110 847.164886 816.732727 838.117493 
824.957642 847.164886 818.377716 838.939972 
827.425110 846.342377 819.200195 839.762482 
824.957642 846.342377 816.732758 837.295013 
826.602631 847.987366 817.555237 838.939972 
826.602600 846.342377 816.732758 838.939972 
822.490173 846.342407 816.732758 838.939972 
824.957642 847.164856 817.555237 835.649994 
829.892578 847.164886 818.377716 837.294983 
824.135162 846.342377 818.377716 834.005035 
821.667694 847.164856 819.200195 835.650024 
821.667664 844.697418 820.845215 836.472504 
817.555237 844.697418 816.732758 834.827515 
820.845184 844.697418 818.377716 838.940002 
825.780121 844.697418 820.022705 835.650024 
824.135162 847.164856 819.200195 836.472504 
823.312653 847.164886 820.022705 834.005035 
830.715057 847.987366 820.845215 838.939972 
827.425110 844.697388 821.667694 845.519897 
822.490173 846.342377 820.845184 839.762482 
824.135132 845.519897 822.490173 843.874908 
820.022705 846.342377 820.022705 839.762482 
823.312683 846.342407 820.845184 838.117493 
831.537567 846.342407 820.022705 835.649994 
834.005035 847.164856 819.200195 835.650024 
833.182526 847.164856 820.845184 841.407440 
829.892578 847.164856 822.490173 839.762451 
830.715088 846.342377 820.845184 841.407440 
826.602631 847.164856 819.200195 837.295013 
825.780121 847.987366 820.022705 836.472504 
828.247589 847.164886 819.200226 838.117493 
824.957642 847.164856 819.200226 836.472504 
824.135162 846.342377 820.022705 837.295013 
826.602600 844.697418 820.022705 839.762482 
829.070099 844.697418 819.200226 841.407471 
829.892578 844.697418 818.377716 840.584961 
826.602631 845.519897 817.555237 834.827515 
824.957642 845.519897 816.732758 833.182526 
824.135132 845.519897 818.377716 836.472504 
829.070068 843.874939 818.377716 837.294983 
831.537537 844.697388 816.732758 836.472504 
832.360046 846.342407 816.732727 835.650024 
829.892578 844.697418 818.377716 837.294983 
829.070099 845.519897 816.732758 833.182526 
829.892578 846.342377 819.200226 836.472504 
828.247589 845.519897 820.845184 838.117493 
830.715057 846.342377 820.845184 837.295013 
834.827515 848.809845 818.377747 835.649994 
834.005005 847.164886 818.377716 832.360046 
831.537567 848.809845 819.200195 834.005035 
828.247620 847.987366 819.200195 834.005035 
829.070099 846.342377 821.667694 840.584961 
825.780121 846.342377 820.022705 836.472504 
831.537567 845.519897 818.377716 834.005035 
831.537567 847.164856 819.200226 832.360046 
825.780121 845.519897 817.555237 834.827545 
827.425110 846.342377 817.555237 838.117493 
828.247589 848.809875 818.377747 842.229919 
830.715088 848.809875 819.200226 839.762451 
827.425110 847.164886 820.022705 835.650024 
828.247589 846.342407 815.910248 832.360046 
826.602631 845.519897 815.910278 830.715057 
830.715057 846.342377 816.732758 831.537567 
834.827515 847.987366 816.732758 833.182526 
830.715088 847.164886 819.200226 835.649994 
829.892578 846.342377 822.490173 835.650024 
827.425110 846.342377 820.845184 836.472504 
827.425110 845.519897 820.022705 838.117462 
829.892578 847.987366 819.200195 835.650024 
827.425140 847.987366 818.377716 843.052429 
825.780121 849.632355 820.022705 841.407440 
824.957642 847.164856 820.845184 839.762451 
827.425110 846.342377 819.200226 837.294983 
824.957642 844.697418 820.022705 834.827515 
829.070099 846.342377 820.845184 837.294983 
832.360046 847.987366 819.200226 837.295013 
831.537567 849.632324 820.845184 837.294983 
833.182556 849.632355 822.490173 838.117493 
830.715088 849.632355 820.022705 841.407440 
822.490173 847.164856 820.845215 838.117493 
825.780121 847.164856 820.022705 840.584961 
824.957642 847.164886 817.555237 839.762451 
825.780121 847.164886 820.022705 838.117493 
826.602631 848.809845 820.845184 839.762451 
824.957642 847.164886 821.667694 838.940002 
829.892578 848.809875 822.490173 836.472504 
833.182556 849.632355 822.490173 837.294983 
836.472504 849.632355 821.667694 834.827515 
838.117493 849.632324 820.022705 831.537567 
836.472504 849.632324 820.845215 834.005035 
838.939972 848.809845 820.022705 835.650024 
839.762482 848.809845 820.845184 834.827515 
834.005035 848.809845 820.022705 839.762451 
830.715057 848.809875 820.845215 846.342377 
819.200195 847.164886 820.845215 838.939972 
822.490173 847.164886 820.022705 843.874939 
827.425110 846.342407 820.845215 838.117493 
829.892609 847.164886 820.022705 837.294983 
836.472504 847.987366 820.022705 837.294983 
834.005035 846.342377 818.377716 839.762451 
833.182556 846.342377 818.377716 837.295013 
831.537567 847.164856 818.377716 840.584961 
824.957642 847.164886 817.555237 839.762451 
824.957642 849.632324 818.377716 836.472504 
829.892578 847.164856 817.555237 837.294983 
827.425110 846.342377 817.555237 835.649994 
831.537567 847.164856 818.377716 832.360046 
834.005035 846.342377 816.732758 836.472504 
829.070099 847.987366 819.200226 834.827515 
825.780151 846.342377 818.377747 838.117462 
825.780151 847.164856 820.845184 840.584961 
827.425110 847.987366 820.022705 837.294983 
829.070068 846.342377 820.022705 838.117493 
837.295013 847.987366 820.022705 836.472504 
834.005035 845.519897 818.377716 834.005005 
829.892578 846.342407 819.200195 836.472504 
829.892578 847.164856 819.200195 834.005035 
827.425110 846.342377 819.200226 833.182526 
828.247589 847.164886 819.200226 836.472504 
830.715088 847.987366 819.200195 835.650024 
833.182526 848.809875 818.377716 836.472504 
831.537537 848.809845 818.377716 837.294983 
832.360046 851.277344 820.022705 836.472504 
830.715057 851.277344 820.022705 835.650024 
834.827515 849.632355 820.845215 839.762482 
839.762451 849.632355 819.200226 834.827515 
835.650024 848.809845 820.022705 836.472504 
830.715057 847.987366 819.200195 836.472504 
829.892578 849.632355 818.377716 834.005035 
824.957642 847.164856 819.200195 834.005005 
829.892578 847.987366 819.200226 836.472504 
829.892578 847.164886 817.555237 834.827515 
831.537567 847.164856 819.200226 840.584961 
832.360046 848.809875 818.377716 841.407471 
829.070099 847.164886 818.377716 840.584961 
831.537537 847.987366 817.555237 838.117493 
834.005005 846.342377 817.555237 838.939972 
833.182526 845.519897 815.910248 840.584961 
833.182526 847.164886 815.910278 837.294983 
829.892578 846.342377 817.555237 839.762451 
832.360046 847.164886 816.732758 834.005005 
831.537567 845.519897 818.377716 833.182556 
834.827515 846.342377 816.732758 833.182526 
830.715057 848.809845 816.732758 838.939972 
833.182526 845.519897 815.087769 833.182526 
834.005035 846.342377 818.377747 837.294983 
827.425110 847.164856 815.910278 838.117493 
826.602631 847.164886 816.732758 838.117493 
824.135162 847.164856 816.732758 838.939972 
829.892578 847.164856 818.377716 835.650024 
837.295013 847.987366 816.732758 840.584961 
838.939972 848.809845 814.265289 832.360046 
844.697388 849.632324 814.265259 835.650024 
843.052399 851.277344 815.910278 838.117462 
843.052429 848.809875 815.910278 829.892578 
840.584961 847.987366 815.087769 833.182526 
832.360046 848.809875 818.377716 840.584961 
824.957642 846.342377 819.200195 842.229950 
824.957642 847.164886 819.200195 841.407440 
824.957642 847.987366 820.022705 842.229950 
829.070099 846.342377 817.555237 836.472504 
828.247589 846.342407 819.200226 839.762451 
827.425110 848.809845 821.667694 845.519897 
829.892578 848.809845 820.845184 843.052429 
831.537567 849.632324 819.200195 845.519897 
829.892578 848.809845 819.200195 838.939972 
825.780121 847.987366 818.377747 835.650024 
832.360046 848.809845 820.022705 837.294983 
834.005035 847.164886 821.667694 839.762451 
831.537567 846.342407 821.667664 841.407440 
827.425110 845.519897 822.490173 838.939972 
825.780151 845.519897 820.845215 843.052429 
830.715057 845.519897 817.555237 836.472504 
834.005035 844.697388 818.377747 840.584930 
829.070099 846.342377 818.377716 840.584961 
825.780121 847.164856 819.200226 841.407471 
824.135162 847.164856 818.377716 841.407440 
824.957642 848.809875 819.200226 841.407440 
829.892578 847.987366 817.555237 836.472504 
829.070099 847.987366 815.910248 836.472504 
828.247620 847.164886 815.910248 836.472504 
830.715057 847.164886 815.087738 834.827515 
827.425110 846.342407 814.265259 837.294983 
831.537567 846.342377 816.732758 834.827515 
832.360046 845.519897 816.732727 838.117493 
829.892578 846.342377 816.732727 834.827515 
824.957642 845.519897 817.555237 833.182526 
824.135132 844.697418 817.555206 833.182556 
829.892578 845.519897 815.087769 835.650024 
829.892578 847.164886 817.555237 838.939972 
831.537567 846.342377 816.732758 838.939972 
829.892578 847.164856 815.087738 838.940002 
827.425110 846.342377 818.377716 839.762451 
830.715057 845.519897 816.732727 838.117462 
831.537537 846.342377 817.555237 843.874908 
829.070068 846.342377 815.910248 835.650024 
830.715088 844.697418 816.732727 834.827515 
834.827515 847.164856 815.087769 836.472504 
837.294983 847.987366 817.555237 836.472504 
837.295013 844.697418 815.910278 838.117493 
829.892609 847.164886 815.087769 838.117493 
830.715088 847.987366 815.910248 837.294983 
829.070099 848.809875 815.087769 837.295013 
833.182526 852.099823 813.442780 831.537567 
834.005035 850.454834 815.087738 834.005035 
831.537567 851.277313 815.087769 828.247620 
832.360077 847.987366 813.442780 828.247589 
838.117493 848.809875 813.442780 838.939972 
839.762451 849.632355 815.087769 835.649994 
834.827545 848.809845 815.910248 835.649994 
834.827515 849.632324 815.087769 831.537567 
834.827515 849.632355 816.732727 833.182556 
829.070099 848.809845 818.377747 832.360046 
833.182526 849.632324 816.732758 840.584961 
832.360046 847.987366 816.732727 842.229950 
837.294983 847.164886 816.732758 835.650024 
835.649994 847.164856 815.087769 842.229950 
830.715057 847.164856 817.555237 833.182556 
825.780151 846.342377 819.200195 839.762451 
824.135132 847.164886 818.377716 838.117462 
829.070099 845.519897 815.910248 833.182556 
829.892578 847.164856 816.732727 841.407440 
828.247589 846.342377 815.910278 830.715057 
827.425110 847.164856 815.910248 837.294983 
828.247589 847.164886 817.555237 839.762451 
829.070099 847.164856 815.910278 837.294983 
828.247589 846.342377 816.732758 837.295013 
831.537567 845.519897 816.732727 839.762482 
834.827545 847.987366 817.555237 836.472504 
835.650024 846.342407 816.732727 837.295013 
832.360077 847.164886 816.732758 838.117462 
824.957642 844.697418 817.555237 838.939972 
823.312653 843.874939 815.910278 838.117493 
823.312653 843.052429 815.910248 840.584961 
825.780151 843.874908 813.442780 835.650024 
828.247589 844.697418 814.265289 837.294983 
828.247589 844.697418 815.087769 840.584961 
831.537567 847.164856 816.732758 836.472504 
832.360046 848.809875 817.555237 838.940002 
824.957642 846.342377 817.555237 838.940002 
824.957642 847.164886 817.555237 836.472504 
833.182556 847.987366 816.732758 834.827515 
837.294983 848.809845 819.200195 838.117493 
838.940002 848.809875 817.555237 833.182526 
829.892578 848.809875 817.555237 832.360046 
821.667694 848.809875 818.377716 837.294983 
824.135132 847.164886 817.555237 834.827545 
830.715057 848.809875 819.200195 843.052429 
825.780121 848.809875 816.732758 843.052429 
830.715057 848.809875 817.555237 843.874908 
827.425110 847.987366 815.910278 837.294983 
829.070099 848.809845 817.555237 842.229950 
830.715057 845.519897 817.555237 842.229919 
827.425110 847.164856 815.910278 838.939972 
828.247589 847.164856 815.910278 841.407471 
832.360046 847.987366 816.732758 842.229919 
835.650024 847.987366 817.555237 842.229950 
829.070099 847.164886 815.910248 835.649994 
822.490173 847.987366 816.732727 839.762451 
824.957642 847.164886 819.200226 844.697418 
829.070099 847.987366 818.377747 841.407471 
837.295013 849.632355 819.200226 845.519897 
840.584930 847.987366 818.377716 840.584961 
842.229919 847.987366 819.200226 838.939972 
841.407440 849.632355 818.377747 848.809875 
839.762482 847.164856 816.732727 839.762451 
842.229919 847.987366 819.200226 837.294983 
842.229919 849.632355 817.555237 841.407440 
839.762451 847.987366 818.377716 837.294983 
837.295013 846.342407 820.022705 841.407471 
830.715088 845.519897 820.022705 847.164856 
826.602600 845.519897 820.022705 837.295013 
828.247589 847.164856 821.667664 844.697418 
830.715088 847.987366 821.667694 843.874908 
831.537567 847.987366 821.667694 840.584961 
834.005035 847.987366 822.490173 840.584930 
832.360046 847.987366 822.490173 838.117462 
827.425110 847.164886 820.022705 835.650024 
825.780121 846.342407 818.377716 834.827515 
824.957642 843.874908 820.022705 838.117462 
824.135132 844.697418 819.200195 842.229919 
829.070068 844.697418 820.845184 841.407471 
827.425110 844.697418 821.667664 842.229950 
828.247620 845.519897 821.667694 838.940002 
830.715088 847.164856 820.022705 841.407440 
828.247620 844.697388 819.200226 836.472504 
829.892578 844.697388 818.377716 836.472504 
829.892578 845.519897 820.022705 836.472504 
826.602631 845.519897 821.667694 834.827515 
829.070099 847.164886 820.845184 837.295013 
830.715088 847.987366 821.667664 838.117493 
829.892578 847.164886 821.667694 838.939972 
832.360046 847.164886 821.667664 837.294983 
829.892578 847.987366 820.022705 839.762482 
828.247620 847.987366 823.312653 841.407440 
829.892578 847.987366 820.022705 838.117493 
835.649994 849.632324 819.200195 834.827515 
835.650024 848.809845 820.022705 841.407471 
836.472504 849.632355 818.377716 835.650024 
830.715057 847.987366 820.022705 836.472504 
829.892578 847.164886 820.022705 844.697388 
829.892578 848.809845 817.555237 835.649994 
834.005035 848.809875 819.200195 838.939972 
832.360046 848.809845 817.555237 841.407471 
835.649994 849.632355 816.732758 838.117493 
838.939972 847.164886 817.555237 834.827515 
833.182526 847.987366 816.732758 840.584961 
829.070099 847.164856 816.732758 835.649994 
829.070099 844.697418 817.555237 834.827515 
829.892578 847.164856 817.555237 834.005035 
824.957642 844.697418 818.377747 834.827515 
824.957642 845.519897 816.732727 834.827515 
826.602631 847.164856 818.377747 837.294983 
824.957642 847.164886 818.377747 835.650024 
825.780121 847.987366 819.200226 833.182556 
832.360046 848.809875 821.667694 838.939972 
832.360046 845.519897 818.377716 832.360046 
835.649994 845.519897 817.555237 833.182526 
832.360046 846.342377 816.732758 829.892578 
825.780121 845.519897 816.732758 834.005035 
827.425110 846.342377 817.555237 835.650024 
830.715057 845.519897 817.555237 835.649994 
837.294983 846.342377 819.200195 835.649994 
829.892578 847.987366 819.200226 834.005035 
832.360046 845.519897 818.377716 837.294983 
829.892578 845.519897 815.910278 828.247589 
830.715057 846.342377 816.732758 828.247589 
830.715057 846.342377 815.087769 830.715057 
833.182526 849.632355 817.555237 835.650024 
832.360046 847.987366 817.555237 833.182526 
830.715088 844.697418 817.555237 841.407471 
831.537537 846.342377 818.377716 838.939972 
828.247589 843.874908 815.087769 834.005035 
834.005035 845.519897 816.732727 835.650024 
839.762482 847.987366 815.910278 832.360046 
838.117493 847.987366 817.555237 841.407440 
829.892578 849.632355 819.200226 837.294983 
829.892578 849.632355 819.200226 834.005035 
829.892578 847.164886 815.087769 832.360077 
828.247589 847.987366 817.555237 831.537567 
834.005005 847.164856 817.555237 839.762482 
829.070099 847.164856 819.200195 841.407440 
827.425110 846.342377 817.555237 836.472504 
830.715057 846.342377 816.732758 834.827515 
