840.584961 847.164856 804.395386 830.715088 
838.940002 842.229919 804.395386 830.715088 
835.650024 843.874939 807.685364 830.715088 
827.425110 843.874939 806.040344 835.650024 
822.490173 845.519897 809.330322 838.940002 
827.425110 845.519897 804.395386 837.294983 
830.715088 843.874939 801.105408 834.005005 
837.294983 843.874939 802.750427 837.294983 
830.715088 840.584961 802.750427 835.650024 
825.780151 842.229919 804.395386 835.650024 
825.780151 838.940002 804.395386 835.650024 
824.135132 842.229919 804.395386 834.005005 
827.425110 843.874939 802.750427 837.294983 
830.715088 837.294983 799.460449 835.650024 
837.294983 838.940002 801.105408 837.294983 
843.874939 840.584961 801.105408 835.650024 
832.360046 838.940002 801.105408 837.294983 
825.780151 840.584961 801.105408 838.940002 
822.490173 837.294983 799.460449 829.070068 
820.845215 837.294983 802.750427 827.425110 
825.780151 842.229919 801.105408 832.360046 
825.780151 837.294983 799.460449 830.715088 
825.780151 840.584961 799.460449 832.360046 
817.555237 838.940002 801.105408 838.940002 
822.490173 840.584961 801.105408 832.360046 
822.490173 838.940002 799.460449 838.940002 
824.135132 838.940002 801.105408 835.650024 
835.650024 845.519897 799.460449 832.360046 
830.715088 842.229919 802.750427 830.715088 
829.070068 843.874939 802.750427 832.360046 
830.715088 843.874939 801.105408 837.294983 
825.780151 840.584961 799.460449 835.650024 
835.650024 843.874939 802.750427 834.005005 
834.005005 848.809875 806.040344 835.650024 
830.715088 842.229919 804.395386 835.650024 
830.715088 842.229919 802.750427 837.294983 
830.715088 842.229919 797.815491 832.360046 
832.360046 840.584961 797.815491 835.650024 
834.005005 840.584961 799.460449 834.005005 
840.584961 848.809875 802.750427 838.940002 
830.715088 845.519897 802.750427 838.940002 
827.425110 838.940002 799.460449 837.294983 
832.360046 845.519897 802.750427 838.940002 
832.360046 847.164856 806.040344 840.584961 
835.650024 843.874939 806.040344 838.940002 
832.360046 850.454834 804.395386 837.294983 
830.715088 843.874939 801.105408 830.715088 
827.425110 842.229919 804.395386 830.715088 
827.425110 845.519897 801.105408 832.360046 
832.360046 843.874939 801.105408 829.070068 
824.135132 843.874939 799.460449 832.360046 
819.200195 842.229919 799.460449 832.360046 
825.780151 840.584961 802.750427 830.715088 
817.555237 845.519897 801.105408 830.715088 
822.490173 840.584961 801.105408 829.070068 
827.425110 842.229919 799.460449 832.360046 
834.005005 845.519897 806.040344 837.294983 
840.584961 843.874939 804.395386 834.005005 
837.294983 845.519897 806.040344 840.584961 
835.650024 842.229919 806.040344 842.229919 
832.360046 834.005005 802.750427 835.650024 
824.135132 835.650024 802.750427 843.874939 
827.425110 837.294983 804.395386 842.229919 
829.070068 840.584961 806.040344 837.294983 
835.650024 842.229919 809.330322 843.874939 
832.360046 842.229919 806.040344 835.650024 
830.715088 842.229919 804.395386 837.294983 
834.005005 840.584961 806.040344 840.584961 
829.070068 842.229919 804.395386 835.650024 
829.070068 842.229919 807.685364 834.005005 
822.490173 842.229919 804.395386 829.070068 
829.070068 842.229919 804.395386 834.005005 
830.715088 842.229919 809.330322 837.294983 
829.070068 842.229919 806.040344 838.940002 
832.360046 843.874939 807.685364 840.584961 
827.425110 840.584961 804.395386 837.294983 
835.650024 843.874939 810.975281 840.584961 
830.715088 842.229919 812.620300 838.940002 
822.490173 842.229919 809.330322 830.715088 
819.200195 838.940002 806.040344 834.005005 
822.490173 842.229919 804.395386 834.005005 
822.490173 847.164856 807.685364 834.005005 
824.135132 848.809875 806.040344 835.650024 
829.070068 842.229919 807.685364 830.715088 
834.005005 843.874939 807.685364 832.360046 
832.360046 845.519897 806.040344 830.715088 
827.425110 843.874939 802.750427 827.425110 
832.360046 848.809875 804.395386 832.360046 
827.425110 843.874939 804.395386 832.360046 
830.715088 845.519897 806.040344 838.940002 
827.425110 850.454834 807.685364 834.005005 
827.425110 847.164856 806.040344 830.715088 
827.425110 838.940002 807.685364 830.715088 
825.780151 843.874939 807.685364 835.650024 
829.070068 843.874939 806.040344 835.650024 
827.425110 845.519897 804.395386 835.650024 
832.360046 852.099792 802.750427 834.005005 
832.360046 843.874939 806.040344 834.005005 
830.715088 845.519897 804.395386 829.070068 
832.360046 848.809875 804.395386 834.005005 
834.005005 847.164856 807.685364 834.005005 
830.715088 850.454834 807.685364 835.650024 
830.715088 847.164856 804.395386 834.005005 
830.715088 848.809875 806.040344 829.070068 
822.490173 845.519897 804.395386 829.070068 
819.200195 843.874939 804.395386 832.360046 
825.780151 847.164856 807.685364 832.360046 
835.650024 845.519897 806.040344 834.005005 
835.650024 850.454834 807.685364 832.360046 
834.005005 850.454834 806.040344 824.135132 
825.780151 848.809875 807.685364 824.135132 
824.135132 845.519897 807.685364 822.490173 
829.070068 847.164856 806.040344 824.135132 
825.780151 852.099792 809.330322 825.780151 
830.715088 848.809875 807.685364 825.780151 
830.715088 848.809875 809.330322 827.425110 
834.005005 850.454834 812.620300 829.070068 
829.070068 847.164856 809.330322 825.780151 
829.070068 845.519897 807.685364 825.780151 
830.715088 850.454834 809.330322 822.490173 
832.360046 848.809875 809.330322 830.715088 
829.070068 850.454834 807.685364 832.360046 
830.715088 850.454834 809.330322 830.715088 
822.490173 845.519897 806.040344 829.070068 
820.845215 845.519897 807.685364 830.715088 
822.490173 845.519897 810.975281 837.294983 
827.425110 850.454834 809.330322 842.229919 
827.425110 850.454834 809.330322 835.650024 
832.360046 850.454834 807.685364 832.360046 
830.715088 847.164856 806.040344 832.360046 
830.715088 843.874939 807.685364 834.005005 
827.425110 848.809875 809.330322 842.229919 
815.910278 845.519897 806.040344 835.650024 
827.425110 852.099792 806.040344 830.715088 
824.135132 852.099792 806.040344 837.294983 
830.715088 842.229919 807.685364 830.715088 
822.490173 843.874939 807.685364 834.005005 
819.200195 842.229919 806.040344 830.715088 
825.780151 842.229919 804.395386 830.715088 
820.845215 845.519897 804.395386 838.940002 
827.425110 852.099792 806.040344 835.650024 
829.070068 850.454834 807.685364 837.294983 
827.425110 847.164856 806.040344 835.650024 
830.715088 847.164856 804.395386 835.650024 
829.070068 843.874939 807.685364 837.294983 
822.490173 847.164856 806.040344 834.005005 
832.360046 853.744812 807.685364 837.294983 
838.940002 850.454834 807.685364 837.294983 
830.715088 845.519897 807.685364 834.005005 
837.294983 847.164856 807.685364 834.005005 
845.519897 848.809875 802.750427 829.070068 
843.874939 850.454834 804.395386 824.135132 
848.809875 852.099792 806.040344 832.360046 
840.584961 850.454834 804.395386 840.584961 
837.294983 850.454834 809.330322 845.519897 
829.070068 845.519897 807.685364 845.519897 
819.200195 847.164856 806.040344 837.294983 
817.555237 847.164856 804.395386 830.715088 
820.845215 853.744812 809.330322 843.874939 
822.490173 852.099792 809.330322 840.584961 
827.425110 852.099792 810.975281 843.874939 
825.780151 850.454834 807.685364 838.940002 
824.135132 847.164856 804.395386 830.715088 
817.555237 853.744812 802.750427 830.715088 
824.135132 852.099792 807.685364 832.360046 
825.780151 852.099792 809.330322 829.070068 
829.070068 857.034729 807.685364 830.715088 
825.780151 852.099792 806.040344 829.070068 
827.425110 850.454834 809.330322 832.360046 
825.780151 853.744812 807.685364 834.005005 
824.135132 847.164856 807.685364 832.360046 
825.780151 848.809875 810.975281 829.070068 
829.070068 852.099792 809.330322 829.070068 
815.910278 848.809875 810.975281 834.005005 
814.265259 848.809875 807.685364 835.650024 
824.135132 847.164856 806.040344 834.005005 
817.555237 847.164856 806.040344 822.490173 
825.780151 852.099792 807.685364 829.070068 
829.070068 853.744812 810.975281 834.005005 
820.845215 847.164856 809.330322 829.070068 
830.715088 843.874939 807.685364 837.294983 
835.650024 845.519897 807.685364 837.294983 
835.650024 848.809875 807.685364 840.584961 
824.135132 852.099792 809.330322 837.294983 
820.845215 852.099792 807.685364 834.005005 
834.005005 852.099792 807.685364 832.360046 
840.584961 852.099792 807.685364 840.584961 
837.294983 845.519897 807.685364 838.940002 
822.490173 847.164856 806.040344 827.425110 
817.555237 845.519897 806.040344 827.425110 
812.620300 848.809875 807.685364 829.070068 
824.135132 848.809875 810.975281 835.650024 
824.135132 847.164856 812.620300 838.940002 
825.780151 848.809875 810.975281 837.294983 
827.425110 845.519897 812.620300 827.425110 
820.845215 847.164856 809.330322 832.360046 
827.425110 848.809875 809.330322 838.940002 
827.425110 848.809875 810.975281 835.650024 
838.940002 853.744812 814.265259 840.584961 
832.360046 852.099792 809.330322 834.005005 
825.780151 852.099792 807.685364 834.005005 
835.650024 852.099792 812.620300 834.005005 
834.005005 850.454834 809.330322 838.940002 
838.940002 848.809875 807.685364 827.425110 
835.650024 850.454834 807.685364 830.715088 
829.070068 853.744812 807.685364 835.650024 
830.715088 852.099792 810.975281 834.005005 
830.715088 852.099792 809.330322 834.005005 
834.005005 852.099792 807.685364 834.005005 
829.070068 848.809875 804.395386 834.005005 
843.874939 855.389771 804.395386 838.940002 
838.940002 852.099792 807.685364 834.005005 
827.425110 850.454834 806.040344 827.425110 
834.005005 855.389771 809.330322 834.005005 
832.360046 848.809875 810.975281 830.715088 
827.425110 852.099792 807.685364 834.005005 
834.005005 852.099792 809.330322 842.229919 
834.005005 850.454834 807.685364 838.940002 
832.360046 853.744812 807.685364 834.005005 
835.650024 853.744812 809.330322 834.005005 
834.005005 853.744812 809.330322 835.650024 
832.360046 853.744812 810.975281 840.584961 
824.135132 847.164856 809.330322 835.650024 
824.135132 848.809875 809.330322 834.005005 
825.780151 850.454834 806.040344 830.715088 
835.650024 853.744812 806.040344 838.940002 
843.874939 853.744812 810.975281 843.874939 
842.229919 848.809875 804.395386 834.005005 
825.780151 848.809875 807.685364 835.650024 
817.555237 847.164856 804.395386 832.360046 
825.780151 852.099792 806.040344 838.940002 
824.135132 853.744812 807.685364 840.584961 
834.005005 850.454834 806.040344 842.229919 
838.940002 850.454834 806.040344 842.229919 
825.780151 848.809875 804.395386 837.294983 
822.490173 848.809875 806.040344 838.940002 
820.845215 847.164856 806.040344 835.650024 
824.135132 848.809875 804.395386 835.650024 
834.005005 852.099792 807.685364 837.294983 
822.490173 848.809875 804.395386 830.715088 
814.265259 848.809875 802.750427 829.070068 
815.910278 848.809875 802.750427 829.070068 
825.780151 847.164856 801.105408 825.780151 
829.070068 847.164856 807.685364 832.360046 
825.780151 847.164856 806.040344 834.005005 
820.845215 845.519897 802.750427 834.005005 
820.845215 850.454834 804.395386 838.940002 
825.780151 848.809875 804.395386 830.715088 
822.490173 850.454834 804.395386 834.005005 
817.555237 848.809875 804.395386 829.070068 
822.490173 850.454834 807.685364 835.650024 
824.135132 848.809875 806.040344 832.360046 
825.780151 848.809875 804.395386 830.715088 
824.135132 843.874939 807.685364 832.360046 
817.555237 845.519897 804.395386 834.005005 
817.555237 848.809875 807.685364 835.650024 
824.135132 848.809875 807.685364 830.715088 
827.425110 850.454834 806.040344 830.715088 
825.780151 843.874939 804.395386 827.425110 
825.780151 848.809875 807.685364 830.715088 
825.780151 847.164856 806.040344 832.360046 
829.070068 848.809875 807.685364 832.360046 
834.005005 852.099792 806.040344 837.294983 
834.005005 853.744812 809.330322 837.294983 
829.070068 848.809875 806.040344 835.650024 
832.360046 850.454834 806.040344 835.650024 
829.070068 848.809875 810.975281 835.650024 
822.490173 847.164856 806.040344 834.005005 
827.425110 850.454834 807.685364 832.360046 
834.005005 855.389771 809.330322 837.294983 
835.650024 852.099792 807.685364 842.229919 
835.650024 850.454834 807.685364 842.229919 
837.294983 848.809875 804.395386 840.584961 
835.650024 848.809875 799.460449 840.584961 
842.229919 848.809875 802.750427 843.874939 
842.229919 852.099792 802.750427 843.874939 
835.650024 850.454834 806.040344 837.294983 
834.005005 847.164856 806.040344 838.940002 
829.070068 847.164856 801.105408 837.294983 
832.360046 845.519897 802.750427 838.940002 
825.780151 845.519897 802.750427 834.005005 
830.715088 847.164856 802.750427 837.294983 
835.650024 852.099792 804.395386 837.294983 
837.294983 852.099792 806.040344 832.360046 
834.005005 852.099792 806.040344 834.005005 
835.650024 850.454834 801.105408 827.425110 
832.360046 848.809875 801.105408 829.070068 
837.294983 852.099792 802.750427 840.584961 
835.650024 850.454834 802.750427 835.650024 
838.940002 850.454834 804.395386 834.005005 
835.650024 852.099792 802.750427 832.360046 
830.715088 848.809875 801.105408 829.070068 
827.425110 850.454834 804.395386 835.650024 
820.845215 850.454834 806.040344 835.650024 
827.425110 852.099792 802.750427 834.005005 
827.425110 847.164856 802.750427 829.070068 
835.650024 847.164856 806.040344 834.005005 
834.005005 848.809875 804.395386 834.005005 
825.780151 845.519897 801.105408 832.360046 
824.135132 852.099792 801.105408 835.650024 
820.845215 850.454834 797.815491 838.940002 
834.005005 845.519897 802.750427 840.584961 
835.650024 847.164856 802.750427 834.005005 
838.940002 850.454834 804.395386 829.070068 
835.650024 848.809875 804.395386 829.070068 
830.715088 848.809875 807.685364 838.940002 
827.425110 848.809875 809.330322 838.940002 
820.845215 840.584961 802.750427 832.360046 
820.845215 845.519897 806.040344 832.360046 
825.780151 845.519897 807.685364 830.715088 
820.845215 843.874939 806.040344 835.650024 
820.845215 847.164856 807.685364 837.294983 
822.490173 845.519897 804.395386 834.005005 
822.490173 848.809875 809.330322 830.715088 
824.135132 847.164856 807.685364 832.360046 
824.135132 843.874939 806.040344 834.005005 
819.200195 847.164856 804.395386 830.715088 
824.135132 845.519897 802.750427 832.360046 
820.845215 847.164856 804.395386 830.715088 
822.490173 847.164856 804.395386 834.005005 
832.360046 847.164856 804.395386 838.940002 
834.005005 848.809875 802.750427 832.360046 
842.229919 850.454834 802.750427 832.360046 
835.650024 853.744812 806.040344 838.940002 
829.070068 850.454834 802.750427 830.715088 
825.780151 850.454834 801.105408 830.715088 
829.070068 852.099792 804.395386 834.005005 
819.200195 848.809875 804.395386 832.360046 
827.425110 850.454834 806.040344 838.940002 
830.715088 850.454834 804.395386 835.650024 
829.070068 848.809875 802.750427 829.070068 
830.715088 850.454834 802.750427 832.360046 
824.135132 848.809875 804.395386 840.584961 
830.715088 850.454834 806.040344 838.940002 
827.425110 850.454834 807.685364 834.005005 
824.135132 850.454834 809.330322 832.360046 
824.135132 848.809875 809.330322 829.070068 
820.845215 845.519897 807.685364 830.715088 
834.005005 850.454834 806.040344 835.650024 
834.005005 848.809875 807.685364 840.584961 
824.135132 848.809875 806.040344 837.294983 
829.070068 850.454834 807.685364 840.584961 
825.780151 852.099792 806.040344 837.294983 
824.135132 850.454834 806.040344 835.650024 
834.005005 850.454834 810.975281 842.229919 
832.360046 845.519897 806.040344 832.360046 
832.360046 845.519897 806.040344 832.360046 
825.780151 847.164856 806.040344 835.650024 
824.135132 848.809875 806.040344 832.360046 
829.070068 850.454834 806.040344 832.360046 
830.715088 852.099792 809.330322 838.940002 
827.425110 848.809875 809.330322 838.940002 
825.780151 843.874939 806.040344 838.940002 
832.360046 850.454834 806.040344 835.650024 
845.519897 848.809875 806.040344 825.780151 
847.164856 855.389771 809.330322 830.715088 
853.744812 857.034729 810.975281 824.135132 
847.164856 852.099792 807.685364 819.200195 
847.164856 848.809875 807.685364 827.425110 
842.229919 847.164856 804.395386 829.070068 
832.360046 848.809875 809.330322 835.650024 
829.070068 848.809875 810.975281 837.294983 
829.070068 852.099792 814.265259 835.650024 
827.425110 852.099792 810.975281 837.294983 
825.780151 842.229919 809.330322 834.005005 
812.620300 842.229919 810.975281 835.650024 
815.910278 845.519897 810.975281 835.650024 
822.490173 848.809875 814.265259 838.940002 
825.780151 850.454834 812.620300 837.294983 
829.070068 848.809875 812.620300 834.005005 
824.135132 850.454834 812.620300 834.005005 
827.425110 845.519897 810.975281 829.070068 
825.780151 843.874939 809.330322 834.005005 
825.780151 845.519897 804.395386 824.135132 
817.555237 845.519897 806.040344 827.425110 
812.620300 847.164856 806.040344 830.715088 
819.200195 848.809875 810.975281 829.070068 
822.490173 847.164856 807.685364 827.425110 
825.780151 842.229919 809.330322 825.780151 
825.780151 845.519897 810.975281 827.425110 
822.490173 843.874939 806.040344 830.715088 
815.910278 843.874939 809.330322 830.715088 
815.910278 847.164856 810.975281 834.005005 
832.360046 853.744812 812.620300 837.294983 
830.715088 848.809875 812.620300 837.294983 
830.715088 848.809875 810.975281 832.360046 
829.070068 848.809875 812.620300 832.360046 
819.200195 845.519897 807.685364 832.360046 
830.715088 848.809875 809.330322 829.070068 
827.425110 850.454834 810.975281 835.650024 
825.780151 850.454834 809.330322 830.715088 
834.005005 850.454834 812.620300 834.005005 
835.650024 847.164856 810.975281 835.650024 
832.360046 845.519897 814.265259 835.650024 
824.135132 847.164856 809.330322 838.940002 
824.135132 845.519897 809.330322 835.650024 
830.715088 847.164856 807.685364 834.005005 
829.070068 847.164856 807.685364 837.294983 
827.425110 847.164856 809.330322 837.294983 
827.425110 848.809875 814.265259 842.229919 
829.070068 847.164856 814.265259 840.584961 
829.070068 843.874939 810.975281 838.940002 
834.005005 843.874939 807.685364 837.294983 
834.005005 845.519897 806.040344 835.650024 
834.005005 848.809875 806.040344 835.650024 
827.425110 845.519897 809.330322 834.005005 
829.070068 845.519897 809.330322 837.294983 
825.780151 850.454834 809.330322 837.294983 
832.360046 845.519897 810.975281 837.294983 
840.584961 848.809875 812.620300 840.584961 
835.650024 847.164856 807.685364 830.715088 
838.940002 845.519897 806.040344 835.650024 
837.294983 850.454834 806.040344 835.650024 
832.360046 850.454834 806.040344 835.650024 
825.780151 847.164856 807.685364 840.584961 
830.715088 848.809875 806.040344 834.005005 
835.650024 848.809875 806.040344 832.360046 
837.294983 847.164856 807.685364 837.294983 
830.715088 847.164856 807.685364 838.940002 
837.294983 848.809875 806.040344 840.584961 
840.584961 848.809875 809.330322 840.584961 
832.360046 847.164856 810.975281 837.294983 
838.940002 850.454834 810.975281 838.940002 
834.005005 847.164856 810.975281 845.519897 
832.360046 847.164856 807.685364 840.584961 
830.715088 848.809875 810.975281 842.229919 
825.780151 847.164856 809.330322 842.229919 
825.780151 852.099792 810.975281 847.164856 
830.715088 852.099792 810.975281 840.584961 
834.005005 845.519897 809.330322 843.874939 
830.715088 843.874939 809.330322 835.650024 
830.715088 843.874939 807.685364 835.650024 
835.650024 843.874939 809.330322 838.940002 
829.070068 852.099792 809.330322 843.874939 
824.135132 848.809875 814.265259 848.809875 
825.780151 845.519897 812.620300 850.454834 
824.135132 842.229919 807.685364 843.874939 
829.070068 840.584961 807.685364 840.584961 
832.360046 840.584961 807.685364 843.874939 
824.135132 843.874939 809.330322 842.229919 
824.135132 842.229919 809.330322 842.229919 
819.200195 843.874939 809.330322 840.584961 
824.135132 842.229919 809.330322 838.940002 
830.715088 845.519897 809.330322 838.940002 
824.135132 845.519897 812.620300 838.940002 
827.425110 845.519897 810.975281 837.294983 
825.780151 847.164856 812.620300 835.650024 
825.780151 843.874939 810.975281 837.294983 
829.070068 845.519897 809.330322 834.005005 
832.360046 845.519897 814.265259 837.294983 
837.294983 847.164856 815.910278 848.809875 
837.294983 847.164856 814.265259 850.454834 
840.584961 843.874939 817.555237 848.809875 
829.070068 845.519897 815.910278 847.164856 
827.425110 843.874939 812.620300 842.229919 
834.005005 843.874939 817.555237 845.519897 
834.005005 845.519897 812.620300 843.874939 
837.294983 842.229919 814.265259 843.874939 
837.294983 843.874939 815.910278 845.519897 
838.940002 843.874939 815.910278 842.229919 
829.070068 842.229919 814.265259 842.229919 
822.490173 838.940002 814.265259 835.650024 
820.845215 840.584961 814.265259 840.584961 
815.910278 842.229919 810.975281 835.650024 
830.715088 843.874939 810.975281 840.584961 
837.294983 842.229919 810.975281 835.650024 
838.940002 842.229919 812.620300 835.650024 
830.715088 843.874939 810.975281 838.940002 
825.780151 838.940002 810.975281 832.360046 
834.005005 843.874939 809.330322 834.005005 
827.425110 843.874939 812.620300 835.650024 
830.715088 842.229919 814.265259 835.650024 
830.715088 845.519897 814.265259 834.005005 
825.780151 845.519897 810.975281 830.715088 
827.425110 842.229919 809.330322 835.650024 
825.780151 842.229919 807.685364 832.360046 
827.425110 845.519897 809.330322 838.940002 
829.070068 842.229919 809.330322 832.360046 
834.005005 845.519897 812.620300 835.650024 
834.005005 845.519897 812.620300 843.874939 
834.005005 847.164856 812.620300 840.584961 
832.360046 845.519897 814.265259 838.940002 
835.650024 845.519897 809.330322 835.650024 
832.360046 843.874939 807.685364 834.005005 
834.005005 840.584961 810.975281 834.005005 
835.650024 845.519897 809.330322 835.650024 
835.650024 843.874939 812.620300 835.650024 
824.135132 843.874939 814.265259 838.940002 
825.780151 845.519897 812.620300 838.940002 
824.135132 842.229919 812.620300 840.584961 
830.715088 842.229919 810.975281 840.584961 
834.005005 845.519897 814.265259 843.874939 
829.070068 843.874939 812.620300 843.874939 
837.294983 842.229919 812.620300 843.874939 
832.360046 843.874939 814.265259 840.584961 
835.650024 842.229919 815.910278 842.229919 
830.715088 843.874939 810.975281 830.715088 
827.425110 843.874939 814.265259 832.360046 
830.715088 838.940002 809.330322 834.005005 
830.715088 842.229919 810.975281 835.650024 
820.845215 842.229919 810.975281 838.940002 
824.135132 843.874939 809.330322 840.584961 
830.715088 845.519897 810.975281 837.294983 
825.780151 842.229919 809.330322 840.584961 
827.425110 842.229919 812.620300 843.874939 
829.070068 842.229919 814.265259 835.650024 
827.425110 838.940002 812.620300 838.940002 
835.650024 842.229919 812.620300 842.229919 
825.780151 842.229919 809.330322 840.584961 
817.555237 838.940002 809.330322 838.940002 
825.780151 840.584961 812.620300 835.650024 
825.780151 840.584961 809.330322 830.715088 
829.070068 842.229919 810.975281 832.360046 
824.135132 842.229919 809.330322 830.715088 
820.845215 845.519897 807.685364 830.715088 
830.715088 848.809875 815.910278 842.229919 
824.135132 843.874939 810.975281 837.294983 
835.650024 845.519897 815.910278 838.940002 
837.294983 847.164856 814.265259 829.070068 
832.360046 843.874939 809.330322 830.715088 
837.294983 847.164856 812.620300 830.715088 
829.070068 845.519897 810.975281 835.650024 
830.715088 845.519897 809.330322 838.940002 
829.070068 845.519897 810.975281 835.650024 
832.360046 845.519897 810.975281 835.650024 
829.070068 842.229919 810.975281 834.005005 
819.200195 838.940002 810.975281 837.294983 
822.490173 845.519897 810.975281 835.650024 
820.845215 843.874939 809.330322 837.294983 
825.780151 845.519897 809.330322 842.229919 
834.005005 847.164856 810.975281 837.294983 
834.005005 848.809875 809.330322 835.650024 
829.070068 847.164856 809.330322 834.005005 
824.135132 843.874939 809.330322 829.070068 
832.360046 845.519897 810.975281 834.005005 
834.005005 845.519897 810.975281 835.650024 
827.425110 848.809875 810.975281 834.005005 
822.490173 843.874939 814.265259 832.360046 
814.265259 843.874939 815.910278 837.294983 
820.845215 842.229919 814.265259 835.650024 
829.070068 845.519897 810.975281 832.360046 
829.070068 847.164856 810.975281 827.425110 
829.070068 847.164856 809.330322 830.715088 
830.715088 847.164856 810.975281 835.650024 
838.940002 848.809875 814.265259 835.650024 
829.070068 843.874939 812.620300 834.005005 
824.135132 840.584961 812.620300 834.005005 
827.425110 845.519897 814.265259 835.650024 
825.780151 842.229919 814.265259 837.294983 
830.715088 850.454834 815.910278 843.874939 
827.425110 848.809875 812.620300 837.294983 
835.650024 847.164856 814.265259 838.940002 
842.229919 848.809875 810.975281 838.940002 
843.874939 848.809875 809.330322 834.005005 
847.164856 848.809875 810.975281 829.070068 
855.389771 850.454834 812.620300 827.425110 
848.809875 850.454834 814.265259 835.650024 
835.650024 847.164856 814.265259 840.584961 
827.425110 850.454834 817.555237 842.229919 
819.200195 848.809875 815.910278 843.874939 
819.200195 843.874939 814.265259 837.294983 
819.200195 847.164856 817.555237 838.940002 
817.555237 845.519897 815.910278 835.650024 
809.330322 845.519897 817.555237 830.715088 
820.845215 850.454834 817.555237 830.715088 
824.135132 847.164856 815.910278 830.715088 
827.425110 853.744812 812.620300 834.005005 
835.650024 852.099792 812.620300 830.715088 
837.294983 850.454834 817.555237 832.360046 
829.070068 848.809875 814.265259 832.360046 
820.845215 845.519897 814.265259 834.005005 
822.490173 850.454834 817.555237 838.940002 
824.135132 852.099792 814.265259 840.584961 
825.780151 848.809875 812.620300 840.584961 
830.715088 847.164856 815.910278 843.874939 
829.070068 848.809875 815.910278 840.584961 
825.780151 845.519897 815.910278 837.294983 
829.070068 847.164856 819.200195 840.584961 
830.715088 848.809875 815.910278 838.940002 
830.715088 850.454834 812.620300 837.294983 
835.650024 852.099792 817.555237 840.584961 
834.005005 848.809875 814.265259 837.294983 
829.070068 850.454834 815.910278 835.650024 
825.780151 847.164856 815.910278 835.650024 
822.490173 847.164856 817.555237 837.294983 
825.780151 848.809875 819.200195 837.294983 
825.780151 845.519897 814.265259 829.070068 
832.360046 850.454834 815.910278 832.360046 
840.584961 852.099792 815.910278 837.294983 
835.650024 852.099792 817.555237 838.940002 
835.650024 850.454834 817.555237 843.874939 
829.070068 843.874939 817.555237 838.940002 
822.490173 845.519897 819.200195 838.940002 
827.425110 845.519897 819.200195 838.940002 
825.780151 847.164856 817.555237 832.360046 
824.135132 847.164856 815.910278 832.360046 
830.715088 842.229919 817.555237 842.229919 
832.360046 843.874939 820.845215 837.294983 
834.005005 845.519897 815.910278 837.294983 
827.425110 843.874939 815.910278 837.294983 
