834.005005 847.164856 817.555237 853.744812 
827.425110 845.519897 815.910278 853.744812 
825.780151 848.809875 814.265259 847.164856 
834.005005 850.454834 815.910278 845.519897 
835.650024 850.454834 814.265259 853.744812 
837.294983 850.454834 814.265259 843.874939 
832.360046 847.164856 815.910278 857.034729 
830.715088 848.809875 815.910278 857.034729 
832.360046 847.164856 815.910278 861.969727 
837.294983 850.454834 812.620300 860.324707 
838.940002 848.809875 810.975281 853.744812 
837.294983 848.809875 812.620300 857.034729 
837.294983 848.809875 810.975281 861.969727 
837.294983 847.164856 810.975281 857.034729 
837.294983 847.164856 810.975281 866.904663 
835.650024 847.164856 812.620300 857.034729 
834.005005 848.809875 812.620300 855.389771 
829.070068 847.164856 812.620300 853.744812 
830.715088 845.519897 809.330322 850.454834 
830.715088 848.809875 810.975281 848.809875 
837.294983 848.809875 814.265259 853.744812 
834.005005 848.809875 814.265259 857.034729 
832.360046 850.454834 814.265259 853.744812 
834.005005 850.454834 812.620300 857.034729 
829.070068 850.454834 812.620300 860.324707 
832.360046 850.454834 812.620300 857.034729 
827.425110 848.809875 814.265259 852.099792 
824.135132 848.809875 815.910278 855.389771 
827.425110 850.454834 815.910278 847.164856 
834.005005 852.099792 815.910278 857.034729 
834.005005 850.454834 814.265259 858.679749 
835.650024 848.809875 812.620300 848.809875 
832.360046 848.809875 814.265259 860.324707 
829.070068 848.809875 814.265259 852.099792 
825.780151 848.809875 815.910278 852.099792 
830.715088 848.809875 814.265259 860.324707 
834.005005 847.164856 815.910278 858.679749 
834.005005 847.164856 817.555237 860.324707 
837.294983 848.809875 814.265259 868.549622 
832.360046 850.454834 812.620300 861.969727 
829.070068 847.164856 810.975281 860.324707 
825.780151 848.809875 812.620300 857.034729 
830.715088 848.809875 814.265259 855.389771 
829.070068 848.809875 812.620300 857.034729 
834.005005 847.164856 814.265259 850.454834 
838.940002 847.164856 812.620300 858.679749 
840.584961 847.164856 815.910278 852.099792 
848.809875 850.454834 812.620300 852.099792 
847.164856 850.454834 810.975281 845.519897 
848.809875 850.454834 815.910278 838.940002 
845.519897 848.809875 809.330322 832.360046 
837.294983 848.809875 812.620300 843.874939 
835.650024 848.809875 812.620300 863.614685 
824.135132 848.809875 812.620300 858.679749 
825.780151 850.454834 814.265259 853.744812 
827.425110 848.809875 812.620300 852.099792 
820.845215 847.164856 814.265259 840.584961 
824.135132 847.164856 814.265259 850.454834 
825.780151 845.519897 814.265259 853.744812 
825.780151 847.164856 812.620300 848.809875 
829.070068 847.164856 814.265259 850.454834 
830.715088 848.809875 814.265259 848.809875 
834.005005 848.809875 812.620300 848.809875 
835.650024 847.164856 815.910278 852.099792 
832.360046 845.519897 819.200195 855.389771 
824.135132 845.519897 817.555237 857.034729 
820.845215 847.164856 817.555237 850.454834 
829.070068 847.164856 815.910278 848.809875 
829.070068 847.164856 815.910278 850.454834 
827.425110 843.874939 817.555237 847.164856 
820.845215 843.874939 815.910278 842.229919 
820.845215 848.809875 812.620300 843.874939 
825.780151 847.164856 815.910278 848.809875 
825.780151 847.164856 815.910278 845.519897 
825.780151 843.874939 819.200195 842.229919 
829.070068 847.164856 814.265259 837.294983 
827.425110 845.519897 815.910278 832.360046 
827.425110 843.874939 817.555237 842.229919 
827.425110 843.874939 815.910278 842.229919 
830.715088 842.229919 820.845215 840.584961 
830.715088 842.229919 819.200195 834.005005 
832.360046 845.519897 815.910278 837.294983 
827.425110 842.229919 820.845215 842.229919 
820.845215 840.584961 819.200195 835.650024 
817.555237 840.584961 817.555237 842.229919 
827.425110 840.584961 820.845215 840.584961 
825.780151 840.584961 817.555237 835.650024 
824.135132 840.584961 819.200195 834.005005 
825.780151 842.229919 822.490173 834.005005 
827.425110 843.874939 819.200195 832.360046 
827.425110 843.874939 819.200195 830.715088 
824.135132 843.874939 819.200195 834.005005 
822.490173 843.874939 815.910278 832.360046 
827.425110 845.519897 817.555237 827.425110 
827.425110 845.519897 817.555237 827.425110 
829.070068 842.229919 815.910278 827.425110 
822.490173 840.584961 815.910278 824.135132 
820.845215 842.229919 815.910278 829.070068 
824.135132 843.874939 812.620300 822.490173 
827.425110 843.874939 814.265259 812.620300 
827.425110 843.874939 820.845215 830.715088 
827.425110 842.229919 819.200195 834.005005 
834.005005 847.164856 817.555237 822.490173 
830.715088 842.229919 815.910278 829.070068 
830.715088 843.874939 817.555237 827.425110 
822.490173 843.874939 815.910278 822.490173 
822.490173 843.874939 817.555237 819.200195 
835.650024 845.519897 815.910278 829.070068 
819.200195 842.229919 814.265259 824.135132 
819.200195 842.229919 815.910278 835.650024 
822.490173 840.584961 817.555237 835.650024 
814.265259 842.229919 814.265259 812.620300 
838.940002 843.874939 812.620300 797.815491 
827.425110 842.229919 815.910278 812.620300 
812.620300 838.940002 815.910278 802.750427 
825.780151 845.519897 815.910278 776.430725 
825.780151 840.584961 814.265259 832.360046 
824.135132 837.294983 817.555237 817.555237 
829.070068 842.229919 814.265259 804.395386 
812.620300 840.584961 814.265259 807.685364 
807.685364 842.229919 817.555237 796.170471 
819.200195 845.519897 814.265259 804.395386 
815.910278 835.650024 817.555237 809.330322 
804.395386 840.584961 815.910278 807.685364 
810.975281 840.584961 814.265259 789.590576 
812.620300 838.940002 812.620300 799.460449 
815.910278 840.584961 817.555237 812.620300 
820.845215 840.584961 820.845215 796.170471 
819.200195 843.874939 817.555237 794.525513 
815.910278 842.229919 819.200195 807.685364 
825.780151 842.229919 815.910278 807.685364 
834.005005 843.874939 812.620300 812.620300 
829.070068 840.584961 815.910278 822.490173 
830.715088 842.229919 812.620300 794.525513 
835.650024 838.940002 815.910278 809.330322 
830.715088 840.584961 814.265259 806.040344 
830.715088 843.874939 814.265259 810.975281 
835.650024 838.940002 810.975281 809.330322 
835.650024 842.229919 810.975281 802.750427 
820.845215 840.584961 810.975281 792.880554 
817.555237 837.294983 812.620300 797.815491 
827.425110 840.584961 810.975281 804.395386 
843.874939 842.229919 809.330322 806.040344 
830.715088 840.584961 812.620300 807.685364 
829.070068 838.940002 810.975281 806.040344 
815.910278 835.650024 812.620300 802.750427 
824.135132 837.294983 812.620300 791.235535 
845.519897 842.229919 809.330322 812.620300 
832.360046 845.519897 809.330322 807.685364 
829.070068 842.229919 815.910278 819.200195 
830.715088 842.229919 817.555237 817.555237 
837.294983 843.874939 817.555237 809.330322 
832.360046 847.164856 812.620300 802.750427 
834.005005 843.874939 814.265259 830.715088 
834.005005 848.809875 810.975281 824.135132 
812.620300 845.519897 815.910278 797.815491 
848.809875 847.164856 817.555237 807.685364 
847.164856 853.744812 815.910278 807.685364 
834.005005 845.519897 819.200195 809.330322 
850.454834 852.099792 815.910278 815.910278 
842.229919 853.744812 817.555237 820.845215 
843.874939 847.164856 814.265259 817.555237 
850.454834 850.454834 812.620300 799.460449 
843.874939 848.809875 810.975281 820.845215 
822.490173 843.874939 809.330322 807.685364 
834.005005 848.809875 810.975281 801.105408 
830.715088 847.164856 814.265259 819.200195 
812.620300 847.164856 814.265259 799.460449 
847.164856 857.034729 810.975281 810.975281 
843.874939 845.519897 812.620300 847.164856 
834.005005 848.809875 814.265259 815.910278 
855.389771 850.454834 810.975281 825.780151 
843.874939 848.809875 815.910278 809.330322 
835.650024 850.454834 814.265259 802.750427 
834.005005 848.809875 817.555237 807.685364 
827.425110 845.519897 819.200195 829.070068 
819.200195 845.519897 819.200195 820.845215 
847.164856 843.874939 820.845215 835.650024 
837.294983 842.229919 824.135132 842.229919 
825.780151 840.584961 824.135132 806.040344 
830.715088 843.874939 819.200195 817.555237 
827.425110 843.874939 819.200195 814.265259 
843.874939 843.874939 817.555237 810.975281 
847.164856 847.164856 817.555237 830.715088 
845.519897 845.519897 817.555237 827.425110 
832.360046 848.809875 817.555237 832.360046 
825.780151 838.940002 820.845215 810.975281 
829.070068 842.229919 822.490173 806.040344 
834.005005 842.229919 819.200195 825.780151 
837.294983 842.229919 817.555237 850.454834 
838.940002 847.164856 814.265259 822.490173 
829.070068 842.229919 817.555237 829.070068 
838.940002 843.874939 819.200195 835.650024 
842.229919 842.229919 819.200195 835.650024 
829.070068 845.519897 819.200195 845.519897 
837.294983 852.099792 817.555237 858.679749 
830.715088 852.099792 814.265259 834.005005 
834.005005 843.874939 815.910278 852.099792 
842.229919 850.454834 814.265259 850.454834 
840.584961 843.874939 815.910278 814.265259 
827.425110 848.809875 814.265259 820.845215 
834.005005 847.164856 819.200195 857.034729 
822.490173 845.519897 817.555237 819.200195 
832.360046 845.519897 820.845215 884.999451 
835.650024 845.519897 822.490173 853.744812 
827.425110 845.519897 817.555237 853.744812 
830.715088 845.519897 820.845215 863.614685 
815.910278 847.164856 819.200195 834.005005 
827.425110 848.809875 817.555237 857.034729 
838.940002 842.229919 822.490173 875.129517 
835.650024 845.519897 820.845215 863.614685 
840.584961 843.874939 820.845215 875.129517 
830.715088 847.164856 819.200195 875.129517 
832.360046 845.519897 817.555237 868.549622 
845.519897 845.519897 820.845215 871.839600 
835.650024 842.229919 822.490173 875.129517 
830.715088 840.584961 820.845215 876.774536 
835.650024 843.874939 822.490173 881.709473 
835.650024 842.229919 822.490173 865.259644 
829.070068 847.164856 820.845215 838.940002 
820.845215 842.229919 827.425110 868.549622 
827.425110 838.940002 824.135132 871.839600 
819.200195 842.229919 820.845215 858.679749 
837.294983 842.229919 820.845215 861.969727 
832.360046 847.164856 819.200195 855.389771 
827.425110 845.519897 817.555237 845.519897 
840.584961 847.164856 815.910278 845.519897 
842.229919 843.874939 820.845215 848.809875 
850.454834 845.519897 819.200195 845.519897 
843.874939 840.584961 822.490173 850.454834 
845.519897 843.874939 819.200195 848.809875 
838.940002 848.809875 817.555237 847.164856 
820.845215 845.519897 822.490173 863.614685 
822.490173 845.519897 819.200195 860.324707 
820.845215 840.584961 822.490173 860.324707 
819.200195 842.229919 817.555237 843.874939 
827.425110 840.584961 820.845215 868.549622 
819.200195 845.519897 822.490173 861.969727 
814.265259 843.874939 825.780151 852.099792 
825.780151 847.164856 825.780151 855.389771 
822.490173 845.519897 824.135132 843.874939 
812.620300 842.229919 825.780151 853.744812 
815.910278 845.519897 820.845215 837.294983 
810.975281 843.874939 822.490173 852.099792 
819.200195 843.874939 819.200195 842.229919 
815.910278 845.519897 820.845215 852.099792 
815.910278 843.874939 819.200195 847.164856 
814.265259 843.874939 819.200195 853.744812 
815.910278 842.229919 820.845215 848.809875 
820.845215 840.584961 820.845215 855.389771 
824.135132 840.584961 820.845215 857.034729 
820.845215 842.229919 819.200195 837.294983 
820.845215 845.519897 819.200195 843.874939 
820.845215 843.874939 819.200195 857.034729 
822.490173 845.519897 819.200195 852.099792 
822.490173 842.229919 820.845215 850.454834 
819.200195 847.164856 819.200195 843.874939 
815.910278 852.099792 819.200195 845.519897 
810.975281 843.874939 819.200195 835.650024 
812.620300 842.229919 820.845215 845.519897 
815.910278 842.229919 817.555237 834.005005 
817.555237 840.584961 820.845215 829.070068 
815.910278 847.164856 820.845215 847.164856 
824.135132 847.164856 820.845215 850.454834 
815.910278 842.229919 820.845215 845.519897 
812.620300 840.584961 819.200195 840.584961 
817.555237 843.874939 819.200195 832.360046 
817.555237 842.229919 819.200195 832.360046 
822.490173 843.874939 819.200195 843.874939 
824.135132 845.519897 819.200195 842.229919 
820.845215 843.874939 819.200195 843.874939 
817.555237 843.874939 820.845215 834.005005 
815.910278 845.519897 819.200195 843.874939 
820.845215 843.874939 815.910278 830.715088 
820.845215 842.229919 817.555237 840.584961 
824.135132 843.874939 819.200195 855.389771 
820.845215 843.874939 815.910278 837.294983 
817.555237 843.874939 815.910278 840.584961 
817.555237 843.874939 817.555237 832.360046 
814.265259 843.874939 819.200195 829.070068 
815.910278 845.519897 815.910278 837.294983 
817.555237 845.519897 817.555237 853.744812 
819.200195 842.229919 815.910278 838.940002 
830.715088 845.519897 812.620300 830.715088 
835.650024 845.519897 817.555237 847.164856 
829.070068 848.809875 817.555237 829.070068 
829.070068 848.809875 815.910278 827.425110 
825.780151 847.164856 815.910278 840.584961 
825.780151 843.874939 819.200195 840.584961 
825.780151 843.874939 817.555237 843.874939 
827.425110 845.519897 820.845215 835.650024 
820.845215 843.874939 820.845215 840.584961 
820.845215 843.874939 817.555237 825.780151 
824.135132 843.874939 820.845215 848.809875 
824.135132 842.229919 820.845215 850.454834 
830.715088 843.874939 817.555237 850.454834 
832.360046 845.519897 817.555237 852.099792 
832.360046 845.519897 817.555237 852.099792 
827.425110 847.164856 819.200195 852.099792 
822.490173 845.519897 820.845215 855.389771 
822.490173 843.874939 817.555237 840.584961 
824.135132 843.874939 820.845215 857.034729 
825.780151 845.519897 822.490173 858.679749 
820.845215 847.164856 819.200195 863.614685 
819.200195 843.874939 819.200195 861.969727 
819.200195 842.229919 824.135132 860.324707 
825.780151 843.874939 822.490173 866.904663 
822.490173 845.519897 822.490173 858.679749 
824.135132 845.519897 820.845215 850.454834 
822.490173 843.874939 817.555237 850.454834 
830.715088 843.874939 822.490173 855.389771 
832.360046 843.874939 822.490173 861.969727 
830.715088 845.519897 819.200195 857.034729 
827.425110 847.164856 815.910278 843.874939 
824.135132 845.519897 817.555237 847.164856 
829.070068 847.164856 817.555237 860.324707 
827.425110 847.164856 817.555237 848.809875 
824.135132 843.874939 819.200195 850.454834 
829.070068 843.874939 817.555237 855.389771 
835.650024 842.229919 819.200195 861.969727 
840.584961 842.229919 819.200195 861.969727 
842.229919 847.164856 812.620300 855.389771 
832.360046 848.809875 814.265259 840.584961 
827.425110 847.164856 815.910278 860.324707 
827.425110 845.519897 817.555237 848.809875 
822.490173 847.164856 819.200195 852.099792 
832.360046 847.164856 817.555237 850.454834 
827.425110 850.454834 815.910278 845.519897 
829.070068 850.454834 817.555237 840.584961 
824.135132 848.809875 817.555237 842.229919 
825.780151 847.164856 819.200195 842.229919 
820.845215 850.454834 819.200195 842.229919 
822.490173 848.809875 820.845215 845.519897 
819.200195 848.809875 819.200195 842.229919 
819.200195 852.099792 817.555237 852.099792 
820.845215 850.454834 819.200195 840.584961 
824.135132 852.099792 815.910278 850.454834 
825.780151 850.454834 817.555237 840.584961 
829.070068 850.454834 817.555237 838.940002 
815.910278 847.164856 817.555237 829.070068 
817.555237 847.164856 817.555237 847.164856 
817.555237 845.519897 817.555237 830.715088 
822.490173 843.874939 819.200195 840.584961 
819.200195 845.519897 817.555237 845.519897 
817.555237 845.519897 817.555237 842.229919 
822.490173 848.809875 817.555237 853.744812 
825.780151 848.809875 817.555237 850.454834 
825.780151 848.809875 820.845215 853.744812 
814.265259 848.809875 817.555237 832.360046 
812.620300 848.809875 814.265259 847.164856 
815.910278 852.099792 810.975281 838.940002 
824.135132 847.164856 817.555237 840.584961 
820.845215 850.454834 817.555237 840.584961 
820.845215 852.099792 815.910278 834.005005 
819.200195 848.809875 817.555237 843.874939 
815.910278 848.809875 815.910278 829.070068 
809.330322 847.164856 815.910278 825.780151 
815.910278 845.519897 817.555237 843.874939 
814.265259 847.164856 815.910278 848.809875 
819.200195 848.809875 814.265259 842.229919 
824.135132 847.164856 815.910278 845.519897 
822.490173 847.164856 815.910278 829.070068 
825.780151 850.454834 815.910278 835.650024 
825.780151 852.099792 815.910278 840.584961 
820.845215 848.809875 817.555237 853.744812 
819.200195 850.454834 817.555237 845.519897 
819.200195 848.809875 817.555237 838.940002 
825.780151 848.809875 819.200195 840.584961 
829.070068 853.744812 815.910278 835.650024 
827.425110 852.099792 815.910278 843.874939 
832.360046 852.099792 819.200195 848.809875 
825.780151 852.099792 817.555237 843.874939 
825.780151 848.809875 819.200195 845.519897 
829.070068 850.454834 812.620300 830.715088 
829.070068 850.454834 814.265259 843.874939 
830.715088 848.809875 815.910278 843.874939 
829.070068 848.809875 814.265259 840.584961 
832.360046 848.809875 814.265259 845.519897 
830.715088 845.519897 814.265259 830.715088 
824.135132 845.519897 817.555237 843.874939 
825.780151 845.519897 817.555237 845.519897 
827.425110 848.809875 815.910278 852.099792 
829.070068 850.454834 817.555237 832.360046 
830.715088 850.454834 814.265259 835.650024 
830.715088 850.454834 815.910278 843.874939 
827.425110 848.809875 814.265259 832.360046 
827.425110 850.454834 814.265259 848.809875 
827.425110 852.099792 815.910278 830.715088 
829.070068 852.099792 815.910278 838.940002 
830.715088 853.744812 814.265259 837.294983 
837.294983 853.744812 812.620300 835.650024 
834.005005 852.099792 815.910278 834.005005 
835.650024 850.454834 819.200195 848.809875 
834.005005 848.809875 817.555237 842.229919 
835.650024 850.454834 817.555237 848.809875 
830.715088 847.164856 817.555237 832.360046 
824.135132 843.874939 815.910278 838.940002 
819.200195 845.519897 814.265259 845.519897 
824.135132 845.519897 819.200195 840.584961 
830.715088 848.809875 819.200195 837.294983 
840.584961 853.744812 810.975281 822.490173 
837.294983 850.454834 815.910278 820.845215 
843.874939 850.454834 812.620300 827.425110 
843.874939 852.099792 814.265259 838.940002 
840.584961 850.454834 819.200195 850.454834 
837.294983 850.454834 817.555237 838.940002 
830.715088 848.809875 817.555237 845.519897 
827.425110 848.809875 815.910278 847.164856 
824.135132 848.809875 819.200195 838.940002 
822.490173 848.809875 817.555237 845.519897 
824.135132 847.164856 815.910278 847.164856 
827.425110 848.809875 820.845215 840.584961 
835.650024 848.809875 819.200195 842.229919 
834.005005 850.454834 817.555237 848.809875 
820.845215 848.809875 819.200195 835.650024 
824.135132 848.809875 815.910278 838.940002 
822.490173 852.099792 814.265259 834.005005 
822.490173 850.454834 815.910278 830.715088 
822.490173 853.744812 814.265259 834.005005 
830.715088 855.389771 815.910278 832.360046 
832.360046 857.034729 814.265259 827.425110 
834.005005 855.389771 810.975281 832.360046 
837.294983 857.034729 812.620300 840.584961 
829.070068 855.389771 810.975281 842.229919 
827.425110 853.744812 812.620300 840.584961 
837.294983 857.034729 815.910278 837.294983 
835.650024 857.034729 817.555237 829.070068 
835.650024 855.389771 817.555237 842.229919 
834.005005 853.744812 820.845215 857.034729 
832.360046 855.389771 819.200195 842.229919 
837.294983 857.034729 819.200195 847.164856 
835.650024 855.389771 817.555237 837.294983 
832.360046 855.389771 815.910278 835.650024 
832.360046 852.099792 815.910278 834.005005 
840.584961 853.744812 812.620300 832.360046 
840.584961 853.744812 819.200195 840.584961 
832.360046 850.454834 817.555237 825.780151 
835.650024 855.389771 819.200195 848.809875 
827.425110 852.099792 817.555237 834.005005 
827.425110 853.744812 817.555237 829.070068 
830.715088 852.099792 819.200195 832.360046 
829.070068 850.454834 817.555237 834.005005 
835.650024 852.099792 820.845215 835.650024 
835.650024 852.099792 814.265259 829.070068 
832.360046 853.744812 814.265259 850.454834 
829.070068 850.454834 817.555237 832.360046 
834.005005 852.099792 815.910278 840.584961 
835.650024 855.389771 817.555237 843.874939 
829.070068 850.454834 817.555237 829.070068 
832.360046 848.809875 815.910278 827.425110 
834.005005 852.099792 817.555237 840.584961 
837.294983 852.099792 817.555237 834.005005 
842.229919 853.744812 817.555237 832.360046 
837.294983 855.389771 812.620300 835.650024 
824.135132 853.744812 814.265259 834.005005 
830.715088 850.454834 814.265259 835.650024 
832.360046 848.809875 817.555237 840.584961 
832.360046 848.809875 817.555237 832.360046 
834.005005 848.809875 815.910278 834.005005 
830.715088 850.454834 815.910278 829.070068 
827.425110 850.454834 815.910278 832.360046 
832.360046 853.744812 815.910278 835.650024 
834.005005 852.099792 814.265259 835.650024 
827.425110 853.744812 815.910278 834.005005 
834.005005 853.744812 817.555237 827.425110 
830.715088 850.454834 819.200195 837.294983 
827.425110 850.454834 820.845215 832.360046 
829.070068 850.454834 819.200195 838.940002 
829.070068 848.809875 820.845215 838.940002 
830.715088 848.809875 819.200195 838.940002 
825.780151 848.809875 817.555237 845.519897 
827.425110 848.809875 820.845215 838.940002 
827.425110 852.099792 817.555237 848.809875 
824.135132 848.809875 817.555237 837.294983 
824.135132 848.809875 814.265259 835.650024 
824.135132 847.164856 814.265259 837.294983 
829.070068 847.164856 815.910278 842.229919 
825.780151 847.164856 817.555237 845.519897 
825.780151 850.454834 819.200195 840.584961 
822.490173 850.454834 819.200195 838.940002 
827.425110 850.454834 819.200195 832.360046 
827.425110 852.099792 819.200195 835.650024 
817.555237 852.099792 815.910278 832.360046 
814.265259 850.454834 817.555237 832.360046 
817.555237 852.099792 819.200195 840.584961 
817.555237 848.809875 817.555237 840.584961 
820.845215 847.164856 817.555237 838.940002 
822.490173 847.164856 814.265259 825.780151 
824.135132 847.164856 815.910278 827.425110 
819.200195 848.809875 815.910278 825.780151 
829.070068 850.454834 814.265259 838.940002 
824.135132 848.809875 815.910278 842.229919 
829.070068 847.164856 815.910278 838.940002 
827.425110 848.809875 820.845215 843.874939 
820.845215 848.809875 814.265259 832.360046 
825.780151 850.454834 814.265259 838.940002 
830.715088 848.809875 814.265259 834.005005 
824.135132 848.809875 815.910278 830.715088 
824.135132 850.454834 814.265259 825.780151 
819.200195 848.809875 812.620300 832.360046 
824.135132 847.164856 815.910278 834.005005 
829.070068 845.519897 819.200195 843.874939 
822.490173 847.164856 822.490173 832.360046 
824.135132 848.809875 817.555237 834.005005 
825.780151 847.164856 814.265259 835.650024 
827.425110 847.164856 814.265259 830.715088 
825.780151 848.809875 815.910278 832.360046 
820.845215 852.099792 819.200195 829.070068 
819.200195 850.454834 819.200195 825.780151 
819.200195 848.809875 814.265259 827.425110 
825.780151 847.164856 817.555237 835.650024 
824.135132 847.164856 814.265259 838.940002 
829.070068 852.099792 815.910278 830.715088 
825.780151 852.099792 815.910278 829.070068 
829.070068 850.454834 814.265259 830.715088 
830.715088 850.454834 815.910278 838.940002 
820.845215 848.809875 814.265259 834.005005 
815.910278 850.454834 814.265259 827.425110 
819.200195 850.454834 812.620300 832.360046 
820.845215 848.809875 814.265259 825.780151 
825.780151 850.454834 814.265259 837.294983 
827.425110 850.454834 817.555237 832.360046 
832.360046 850.454834 819.200195 832.360046 
830.715088 850.454834 815.910278 827.425110 
830.715088 852.099792 815.910278 827.425110 
829.070068 850.454834 817.555237 838.940002 
822.490173 848.809875 817.555237 834.005005 
829.070068 848.809875 815.910278 835.650024 
825.780151 850.454834 815.910278 829.070068 
829.070068 850.454834 817.555237 837.294983 
830.715088 850.454834 817.555237 838.940002 
824.135132 848.809875 822.490173 842.229919 
829.070068 852.099792 815.910278 829.070068 
824.135132 850.454834 814.265259 827.425110 
824.135132 850.454834 817.555237 835.650024 
825.780151 847.164856 815.910278 834.005005 
820.845215 843.874939 819.200195 832.360046 
827.425110 847.164856 814.265259 825.780151 
830.715088 847.164856 815.910278 832.360046 
830.715088 848.809875 817.555237 843.874939 
825.780151 848.809875 815.910278 832.360046 
824.135132 850.454834 817.555237 832.360046 
817.555237 848.809875 819.200195 832.360046 
822.490173 848.809875 817.555237 838.940002 
827.425110 850.454834 815.910278 840.584961 
825.780151 848.809875 817.555237 840.584961 
829.070068 850.454834 814.265259 834.005005 
827.425110 850.454834 819.200195 830.715088 
825.780151 850.454834 817.555237 837.294983 
824.135132 850.454834 819.200195 835.650024 
827.425110 852.099792 815.910278 830.715088 
824.135132 852.099792 819.200195 832.360046 
825.780151 850.454834 820.845215 842.229919 
827.425110 850.454834 817.555237 832.360046 
824.135132 850.454834 819.200195 834.005005 
827.425110 848.809875 817.555237 838.940002 
825.780151 850.454834 814.265259 835.650024 
829.070068 850.454834 819.200195 837.294983 
827.425110 850.454834 819.200195 834.005005 
825.780151 850.454834 819.200195 834.005005 
824.135132 847.164856 820.845215 840.584961 
824.135132 848.809875 820.845215 845.519897 
827.425110 848.809875 815.910278 837.294983 
837.294983 850.454834 815.910278 834.005005 
842.229919 850.454834 814.265259 832.360046 
845.519897 850.454834 819.200195 842.229919 
852.099792 855.389771 817.555237 838.940002 
845.519897 853.744812 819.200195 829.070068 
845.519897 852.099792 815.910278 835.650024 
838.940002 850.454834 817.555237 838.940002 
829.070068 850.454834 817.555237 838.940002 
827.425110 850.454834 817.555237 838.940002 
819.200195 848.809875 819.200195 842.229919 
817.555237 847.164856 822.490173 832.360046 
824.135132 848.809875 820.845215 838.940002 
827.425110 848.809875 819.200195 830.715088 
827.425110 848.809875 819.200195 838.940002 
829.070068 847.164856 820.845215 847.164856 
824.135132 845.519897 819.200195 848.809875 
832.360046 847.164856 819.200195 838.940002 
832.360046 847.164856 814.265259 829.070068 
835.650024 847.164856 815.910278 842.229919 
834.005005 847.164856 817.555237 848.809875 
830.715088 847.164856 812.620300 842.229919 
832.360046 845.519897 815.910278 843.874939 
832.360046 847.164856 817.555237 842.229919 
829.070068 843.874939 817.555237 838.940002 
832.360046 843.874939 817.555237 834.005005 
829.070068 843.874939 815.910278 850.454834 
832.360046 843.874939 814.265259 840.584961 
830.715088 845.519897 817.555237 840.584961 
822.490173 845.519897 815.910278 840.584961 
825.780151 845.519897 814.265259 829.070068 
825.780151 843.874939 815.910278 837.294983 
830.715088 843.874939 812.620300 847.164856 
830.715088 842.229919 815.910278 840.584961 
837.294983 845.519897 820.845215 842.229919 
835.650024 840.584961 815.910278 840.584961 
834.005005 840.584961 819.200195 837.294983 
830.715088 848.809875 819.200195 837.294983 
