822.490173 847.164856 822.490173 850.454834 
822.490173 848.809875 822.490173 850.454834 
827.425110 850.454834 819.200195 853.744812 
822.490173 848.809875 820.845215 848.809875 
819.200195 848.809875 817.555237 843.874939 
815.910278 847.164856 814.265259 842.229919 
819.200195 850.454834 817.555237 840.584961 
820.845215 848.809875 817.555237 843.874939 
827.425110 848.809875 817.555237 853.744812 
829.070068 850.454834 820.845215 850.454834 
820.845215 848.809875 820.845215 853.744812 
822.490173 848.809875 819.200195 847.164856 
824.135132 850.454834 824.135132 843.874939 
822.490173 847.164856 822.490173 845.519897 
822.490173 847.164856 820.845215 842.229919 
819.200195 847.164856 820.845215 845.519897 
825.780151 845.519897 820.845215 848.809875 
824.135132 847.164856 820.845215 847.164856 
825.780151 847.164856 822.490173 840.584961 
825.780151 848.809875 820.845215 843.874939 
825.780151 848.809875 820.845215 845.519897 
830.715088 852.099792 822.490173 848.809875 
829.070068 850.454834 822.490173 858.679749 
827.425110 850.454834 824.135132 848.809875 
822.490173 848.809875 822.490173 850.454834 
824.135132 847.164856 820.845215 847.164856 
820.845215 848.809875 819.200195 840.584961 
814.265259 845.519897 815.910278 838.940002 
809.330322 843.874939 819.200195 830.715088 
807.685364 840.584961 819.200195 834.005005 
814.265259 845.519897 819.200195 840.584961 
812.620300 845.519897 819.200195 838.940002 
819.200195 845.519897 819.200195 840.584961 
814.265259 848.809875 819.200195 832.360046 
809.330322 845.519897 817.555237 832.360046 
814.265259 847.164856 820.845215 838.940002 
817.555237 848.809875 820.845215 838.940002 
817.555237 848.809875 817.555237 840.584961 
815.910278 850.454834 819.200195 834.005005 
810.975281 848.809875 820.845215 834.005005 
810.975281 847.164856 825.780151 837.294983 
810.975281 847.164856 824.135132 837.294983 
814.265259 848.809875 819.200195 837.294983 
819.200195 850.454834 820.845215 837.294983 
815.910278 850.454834 822.490173 835.650024 
817.555237 848.809875 825.780151 835.650024 
810.975281 847.164856 822.490173 837.294983 
806.040344 848.809875 820.845215 837.294983 
817.555237 850.454834 824.135132 834.005005 
814.265259 852.099792 822.490173 832.360046 
814.265259 852.099792 822.490173 832.360046 
806.040344 848.809875 820.845215 829.070068 
804.395386 847.164856 822.490173 827.425110 
809.330322 847.164856 822.490173 830.715088 
809.330322 847.164856 822.490173 832.360046 
806.040344 845.519897 822.490173 827.425110 
802.750427 845.519897 820.845215 832.360046 
806.040344 847.164856 822.490173 830.715088 
804.395386 847.164856 822.490173 827.425110 
804.395386 847.164856 820.845215 837.294983 
802.750427 848.809875 820.845215 830.715088 
802.750427 848.809875 820.845215 835.650024 
804.395386 848.809875 820.845215 837.294983 
809.330322 848.809875 820.845215 840.584961 
806.040344 848.809875 822.490173 842.229919 
802.750427 847.164856 820.845215 834.005005 
807.685364 847.164856 820.845215 835.650024 
809.330322 847.164856 822.490173 835.650024 
812.620300 847.164856 820.845215 842.229919 
810.975281 847.164856 820.845215 843.874939 
809.330322 847.164856 819.200195 843.874939 
807.685364 848.809875 819.200195 838.940002 
810.975281 850.454834 820.845215 842.229919 
810.975281 852.099792 822.490173 840.584961 
810.975281 850.454834 822.490173 837.294983 
812.620300 852.099792 820.845215 837.294983 
812.620300 850.454834 819.200195 838.940002 
810.975281 850.454834 817.555237 842.229919 
810.975281 848.809875 819.200195 838.940002 
807.685364 850.454834 820.845215 832.360046 
804.395386 850.454834 820.845215 832.360046 
807.685364 850.454834 820.845215 834.005005 
806.040344 848.809875 820.845215 834.005005 
812.620300 848.809875 822.490173 837.294983 
814.265259 848.809875 820.845215 832.360046 
815.910278 848.809875 822.490173 832.360046 
815.910278 848.809875 822.490173 832.360046 
815.910278 848.809875 820.845215 832.360046 
820.845215 850.454834 820.845215 842.229919 
817.555237 852.099792 820.845215 840.584961 
815.910278 852.099792 822.490173 843.874939 
819.200195 855.389771 824.135132 838.940002 
819.200195 855.389771 824.135132 840.584961 
817.555237 852.099792 820.845215 845.519897 
820.845215 853.744812 819.200195 837.294983 
820.845215 852.099792 820.845215 838.940002 
819.200195 853.744812 824.135132 843.874939 
814.265259 853.744812 822.490173 842.229919 
809.330322 852.099792 822.490173 838.940002 
810.975281 850.454834 820.845215 840.584961 
809.330322 847.164856 822.490173 835.650024 
810.975281 847.164856 822.490173 838.940002 
807.685364 848.809875 822.490173 847.164856 
804.395386 850.454834 822.490173 840.584961 
807.685364 850.454834 824.135132 838.940002 
809.330322 848.809875 827.425110 843.874939 
806.040344 847.164856 824.135132 843.874939 
807.685364 847.164856 822.490173 843.874939 
802.750427 848.809875 820.845215 835.650024 
812.620300 848.809875 822.490173 840.584961 
810.975281 848.809875 824.135132 837.294983 
802.750427 845.519897 824.135132 840.584961 
804.395386 845.519897 822.490173 840.584961 
806.040344 847.164856 820.845215 837.294983 
807.685364 850.454834 825.780151 840.584961 
810.975281 852.099792 825.780151 847.164856 
809.330322 852.099792 825.780151 842.229919 
807.685364 852.099792 824.135132 840.584961 
809.330322 852.099792 824.135132 838.940002 
802.750427 850.454834 825.780151 838.940002 
797.815491 847.164856 825.780151 840.584961 
801.105408 848.809875 825.780151 845.519897 
804.395386 850.454834 824.135132 838.940002 
801.105408 848.809875 824.135132 840.584961 
799.460449 848.809875 825.780151 837.294983 
801.105408 848.809875 825.780151 838.940002 
802.750427 850.454834 822.490173 837.294983 
809.330322 850.454834 820.845215 837.294983 
807.685364 852.099792 822.490173 838.940002 
806.040344 850.454834 824.135132 837.294983 
801.105408 850.454834 824.135132 838.940002 
802.750427 850.454834 824.135132 838.940002 
806.040344 850.454834 822.490173 843.874939 
804.395386 850.454834 822.490173 837.294983 
801.105408 845.519897 822.490173 835.650024 
802.750427 847.164856 822.490173 834.005005 
801.105408 848.809875 822.490173 832.360046 
806.040344 848.809875 822.490173 835.650024 
806.040344 847.164856 822.490173 832.360046 
806.040344 847.164856 822.490173 830.715088 
809.330322 848.809875 822.490173 838.940002 
809.330322 850.454834 822.490173 837.294983 
804.395386 850.454834 822.490173 840.584961 
797.815491 848.809875 820.845215 832.360046 
802.750427 848.809875 820.845215 830.715088 
806.040344 850.454834 820.845215 835.650024 
804.395386 848.809875 819.200195 829.070068 
802.750427 848.809875 820.845215 832.360046 
801.105408 847.164856 820.845215 829.070068 
802.750427 847.164856 817.555237 827.425110 
796.170471 845.519897 820.845215 832.360046 
799.460449 842.229919 819.200195 829.070068 
799.460449 845.519897 820.845215 834.005005 
806.040344 847.164856 820.845215 835.650024 
804.395386 848.809875 817.555237 832.360046 
802.750427 847.164856 822.490173 830.715088 
802.750427 843.874939 824.135132 834.005005 
804.395386 845.519897 824.135132 838.940002 
807.685364 847.164856 822.490173 837.294983 
806.040344 847.164856 819.200195 838.940002 
807.685364 843.874939 822.490173 835.650024 
801.105408 843.874939 822.490173 834.005005 
802.750427 845.519897 819.200195 834.005005 
804.395386 847.164856 819.200195 832.360046 
806.040344 848.809875 819.200195 830.715088 
807.685364 847.164856 820.845215 829.070068 
809.330322 848.809875 824.135132 835.650024 
807.685364 848.809875 824.135132 835.650024 
802.750427 848.809875 822.490173 838.940002 
806.040344 847.164856 820.845215 837.294983 
806.040344 848.809875 817.555237 835.650024 
804.395386 848.809875 817.555237 827.425110 
809.330322 848.809875 819.200195 829.070068 
799.460449 845.519897 819.200195 825.780151 
802.750427 845.519897 819.200195 825.780151 
802.750427 847.164856 819.200195 827.425110 
809.330322 845.519897 819.200195 825.780151 
812.620300 845.519897 820.845215 830.715088 
806.040344 843.874939 819.200195 829.070068 
801.105408 843.874939 819.200195 822.490173 
799.460449 842.229919 822.490173 832.360046 
797.815491 842.229919 819.200195 825.780151 
806.040344 843.874939 820.845215 829.070068 
810.975281 843.874939 819.200195 830.715088 
807.685364 845.519897 819.200195 827.425110 
801.105408 842.229919 820.845215 830.715088 
796.170471 840.584961 820.845215 830.715088 
796.170471 842.229919 817.555237 830.715088 
801.105408 847.164856 814.265259 820.845215 
806.040344 845.519897 815.910278 820.845215 
802.750427 843.874939 819.200195 829.070068 
804.395386 847.164856 819.200195 832.360046 
807.685364 848.809875 819.200195 832.360046 
814.265259 848.809875 819.200195 835.650024 
812.620300 848.809875 817.555237 835.650024 
810.975281 847.164856 819.200195 830.715088 
809.330322 845.519897 822.490173 830.715088 
807.685364 845.519897 820.845215 832.360046 
802.750427 845.519897 820.845215 838.940002 
806.040344 842.229919 820.845215 838.940002 
804.395386 842.229919 820.845215 838.940002 
802.750427 842.229919 819.200195 834.005005 
809.330322 845.519897 820.845215 835.650024 
799.460449 843.874939 815.910278 829.070068 
796.170471 842.229919 815.910278 827.425110 
794.525513 840.584961 817.555237 822.490173 
789.590576 838.940002 817.555237 824.135132 
792.880554 842.229919 822.490173 834.005005 
794.525513 842.229919 820.845215 832.360046 
802.750427 842.229919 820.845215 830.715088 
810.975281 842.229919 817.555237 832.360046 
812.620300 843.874939 815.910278 829.070068 
822.490173 845.519897 815.910278 835.650024 
830.715088 847.164856 814.265259 834.005005 
837.294983 845.519897 814.265259 832.360046 
837.294983 845.519897 814.265259 832.360046 
829.070068 845.519897 819.200195 832.360046 
812.620300 843.874939 815.910278 834.005005 
807.685364 845.519897 817.555237 842.229919 
804.395386 843.874939 817.555237 835.650024 
807.685364 842.229919 817.555237 837.294983 
801.105408 843.874939 819.200195 840.584961 
809.330322 843.874939 819.200195 835.650024 
804.395386 843.874939 817.555237 835.650024 
801.105408 847.164856 817.555237 832.360046 
801.105408 845.519897 817.555237 832.360046 
799.460449 843.874939 817.555237 827.425110 
801.105408 843.874939 815.910278 829.070068 
799.460449 843.874939 815.910278 830.715088 
804.395386 847.164856 814.265259 834.005005 
804.395386 847.164856 812.620300 832.360046 
804.395386 845.519897 812.620300 830.715088 
807.685364 845.519897 817.555237 834.005005 
810.975281 847.164856 815.910278 832.360046 
806.040344 845.519897 815.910278 835.650024 
812.620300 848.809875 809.330322 832.360046 
809.330322 847.164856 810.975281 824.135132 
807.685364 845.519897 812.620300 827.425110 
812.620300 847.164856 812.620300 827.425110 
807.685364 845.519897 814.265259 825.780151 
812.620300 847.164856 812.620300 825.780151 
809.330322 847.164856 812.620300 822.490173 
815.910278 847.164856 812.620300 832.360046 
812.620300 847.164856 814.265259 832.360046 
807.685364 847.164856 810.975281 830.715088 
809.330322 847.164856 814.265259 835.650024 
807.685364 845.519897 810.975281 834.005005 
806.040344 845.519897 812.620300 838.940002 
810.975281 848.809875 814.265259 840.584961 
814.265259 848.809875 814.265259 835.650024 
815.910278 847.164856 817.555237 835.650024 
812.620300 847.164856 815.910278 837.294983 
807.685364 843.874939 812.620300 837.294983 
814.265259 847.164856 812.620300 835.650024 
814.265259 847.164856 814.265259 835.650024 
812.620300 847.164856 815.910278 834.005005 
812.620300 847.164856 812.620300 832.360046 
810.975281 845.519897 812.620300 838.940002 
817.555237 848.809875 810.975281 832.360046 
819.200195 850.454834 812.620300 834.005005 
812.620300 847.164856 814.265259 830.715088 
814.265259 847.164856 812.620300 825.780151 
812.620300 847.164856 815.910278 832.360046 
809.330322 845.519897 815.910278 834.005005 
806.040344 845.519897 815.910278 830.715088 
807.685364 847.164856 817.555237 832.360046 
812.620300 847.164856 815.910278 832.360046 
812.620300 847.164856 814.265259 829.070068 
809.330322 843.874939 814.265259 830.715088 
810.975281 845.519897 812.620300 832.360046 
812.620300 847.164856 814.265259 834.005005 
814.265259 847.164856 815.910278 840.584961 
815.910278 847.164856 815.910278 834.005005 
815.910278 847.164856 815.910278 834.005005 
817.555237 845.519897 815.910278 837.294983 
827.425110 848.809875 814.265259 838.940002 
820.845215 845.519897 815.910278 840.584961 
822.490173 847.164856 815.910278 837.294983 
822.490173 848.809875 812.620300 838.940002 
819.200195 848.809875 810.975281 837.294983 
820.845215 850.454834 809.330322 835.650024 
820.845215 847.164856 815.910278 835.650024 
812.620300 847.164856 817.555237 842.229919 
814.265259 848.809875 815.910278 842.229919 
812.620300 850.454834 815.910278 840.584961 
807.685364 847.164856 817.555237 838.940002 
804.395386 845.519897 817.555237 837.294983 
806.040344 843.874939 817.555237 834.005005 
799.460449 843.874939 817.555237 835.650024 
804.395386 845.519897 815.910278 832.360046 
806.040344 847.164856 814.265259 834.005005 
797.815491 843.874939 814.265259 829.070068 
801.105408 842.229919 814.265259 834.005005 
806.040344 845.519897 815.910278 832.360046 
809.330322 845.519897 819.200195 830.715088 
802.750427 845.519897 817.555237 840.584961 
802.750427 847.164856 819.200195 829.070068 
801.105408 845.519897 819.200195 837.294983 
801.105408 845.519897 819.200195 834.005005 
807.685364 847.164856 817.555237 829.070068 
809.330322 848.809875 815.910278 832.360046 
810.975281 850.454834 820.845215 832.360046 
807.685364 848.809875 820.845215 840.584961 
806.040344 845.519897 817.555237 838.940002 
801.105408 843.874939 819.200195 837.294983 
801.105408 845.519897 817.555237 830.715088 
809.330322 845.519897 819.200195 834.005005 
812.620300 847.164856 819.200195 840.584961 
810.975281 847.164856 817.555237 834.005005 
804.395386 848.809875 815.910278 832.360046 
806.040344 850.454834 817.555237 834.005005 
809.330322 850.454834 819.200195 838.940002 
810.975281 848.809875 820.845215 843.874939 
806.040344 845.519897 819.200195 840.584961 
802.750427 845.519897 817.555237 838.940002 
801.105408 847.164856 814.265259 834.005005 
807.685364 848.809875 810.975281 835.650024 
809.330322 852.099792 814.265259 835.650024 
806.040344 847.164856 814.265259 834.005005 
806.040344 845.519897 815.910278 832.360046 
804.395386 845.519897 815.910278 835.650024 
804.395386 847.164856 815.910278 835.650024 
810.975281 847.164856 817.555237 834.005005 
809.330322 842.229919 819.200195 837.294983 
802.750427 842.229919 815.910278 835.650024 
804.395386 843.874939 817.555237 830.715088 
804.395386 845.519897 815.910278 837.294983 
812.620300 847.164856 815.910278 832.360046 
812.620300 847.164856 815.910278 832.360046 
810.975281 845.519897 814.265259 835.650024 
807.685364 840.584961 815.910278 834.005005 
806.040344 832.360046 819.200195 843.874939 
807.685364 829.070068 817.555237 837.294983 
801.105408 825.780151 815.910278 832.360046 
804.395386 827.425110 817.555237 840.584961 
806.040344 829.070068 815.910278 838.940002 
809.330322 829.070068 814.265259 832.360046 
801.105408 829.070068 814.265259 827.425110 
802.750427 830.715088 812.620300 819.200195 
804.395386 830.715088 815.910278 829.070068 
802.750427 830.715088 814.265259 829.070068 
806.040344 834.005005 815.910278 829.070068 
809.330322 837.294983 815.910278 837.294983 
812.620300 837.294983 815.910278 838.940002 
810.975281 837.294983 819.200195 835.650024 
806.040344 834.005005 819.200195 832.360046 
804.395386 835.650024 817.555237 832.360046 
809.330322 840.584961 814.265259 835.650024 
807.685364 845.519897 814.265259 835.650024 
802.750427 842.229919 815.910278 835.650024 
806.040344 842.229919 819.200195 835.650024 
796.170471 840.584961 819.200195 834.005005 
799.460449 843.874939 815.910278 834.005005 
802.750427 845.519897 814.265259 825.780151 
799.460449 845.519897 815.910278 832.360046 
802.750427 845.519897 820.845215 835.650024 
797.815491 843.874939 819.200195 830.715088 
796.170471 843.874939 815.910278 830.715088 
801.105408 843.874939 815.910278 827.425110 
804.395386 845.519897 814.265259 830.715088 
801.105408 847.164856 815.910278 830.715088 
802.750427 847.164856 817.555237 832.360046 
801.105408 847.164856 817.555237 825.780151 
804.395386 847.164856 817.555237 830.715088 
802.750427 850.454834 817.555237 832.360046 
807.685364 852.099792 815.910278 834.005005 
812.620300 848.809875 819.200195 840.584961 
812.620300 850.454834 819.200195 842.229919 
819.200195 850.454834 819.200195 840.584961 
815.910278 848.809875 819.200195 843.874939 
814.265259 848.809875 817.555237 843.874939 
812.620300 847.164856 817.555237 837.294983 
812.620300 848.809875 819.200195 837.294983 
807.685364 847.164856 820.845215 832.360046 
807.685364 843.874939 820.845215 835.650024 
810.975281 847.164856 820.845215 834.005005 
807.685364 848.809875 819.200195 837.294983 
810.975281 850.454834 819.200195 834.005005 
812.620300 850.454834 815.910278 830.715088 
802.750427 847.164856 817.555237 838.940002 
797.815491 847.164856 815.910278 834.005005 
799.460449 847.164856 814.265259 830.715088 
804.395386 848.809875 814.265259 830.715088 
809.330322 847.164856 812.620300 835.650024 
806.040344 845.519897 815.910278 835.650024 
807.685364 847.164856 819.200195 838.940002 
802.750427 847.164856 817.555237 837.294983 
806.040344 848.809875 815.910278 832.360046 
806.040344 845.519897 815.910278 832.360046 
809.330322 847.164856 815.910278 838.940002 
810.975281 848.809875 817.555237 832.360046 
809.330322 848.809875 812.620300 825.780151 
814.265259 850.454834 812.620300 832.360046 
810.975281 850.454834 814.265259 829.070068 
809.330322 850.454834 814.265259 829.070068 
814.265259 850.454834 815.910278 835.650024 
810.975281 850.454834 814.265259 832.360046 
809.330322 850.454834 814.265259 827.425110 
810.975281 850.454834 815.910278 829.070068 
806.040344 852.099792 815.910278 830.715088 
806.040344 853.744812 815.910278 832.360046 
806.040344 850.454834 817.555237 837.294983 
801.105408 852.099792 817.555237 837.294983 
809.330322 852.099792 819.200195 838.940002 
802.750427 850.454834 814.265259 832.360046 
806.040344 852.099792 814.265259 830.715088 
809.330322 855.389771 812.620300 830.715088 
801.105408 852.099792 817.555237 830.715088 
802.750427 848.809875 817.555237 830.715088 
804.395386 848.809875 815.910278 824.135132 
799.460449 852.099792 814.265259 820.845215 
806.040344 850.454834 810.975281 824.135132 
807.685364 852.099792 810.975281 824.135132 
807.685364 850.454834 812.620300 829.070068 
806.040344 848.809875 812.620300 825.780151 
804.395386 850.454834 810.975281 827.425110 
804.395386 853.744812 810.975281 827.425110 
801.105408 852.099792 809.330322 825.780151 
802.750427 850.454834 810.975281 827.425110 
801.105408 852.099792 812.620300 825.780151 
801.105408 852.099792 814.265259 829.070068 
801.105408 852.099792 810.975281 827.425110 
799.460449 852.099792 810.975281 822.490173 
794.525513 848.809875 810.975281 825.780151 
789.590576 847.164856 809.330322 824.135132 
802.750427 848.809875 809.330322 825.780151 
807.685364 848.809875 810.975281 829.070068 
807.685364 848.809875 810.975281 822.490173 
812.620300 852.099792 810.975281 824.135132 
814.265259 852.099792 810.975281 822.490173 
814.265259 852.099792 809.330322 820.845215 
817.555237 852.099792 809.330322 824.135132 
815.910278 848.809875 810.975281 822.490173 
809.330322 850.454834 807.685364 825.780151 
806.040344 852.099792 810.975281 832.360046 
804.395386 850.454834 812.620300 840.584961 
801.105408 848.809875 812.620300 840.584961 
797.815491 848.809875 812.620300 835.650024 
797.815491 848.809875 810.975281 832.360046 
799.460449 852.099792 810.975281 834.005005 
801.105408 852.099792 812.620300 829.070068 
804.395386 850.454834 814.265259 834.005005 
801.105408 847.164856 814.265259 832.360046 
799.460449 847.164856 812.620300 838.940002 
799.460449 848.809875 807.685364 835.650024 
804.395386 850.454834 809.330322 834.005005 
801.105408 850.454834 810.975281 830.715088 
799.460449 850.454834 809.330322 819.200195 
802.750427 850.454834 812.620300 830.715088 
807.685364 852.099792 809.330322 830.715088 
807.685364 853.744812 809.330322 830.715088 
802.750427 852.099792 810.975281 829.070068 
802.750427 848.809875 810.975281 830.715088 
801.105408 850.454834 810.975281 830.715088 
802.750427 847.164856 810.975281 829.070068 
807.685364 848.809875 810.975281 834.005005 
804.395386 850.454834 809.330322 834.005005 
802.750427 852.099792 807.685364 829.070068 
810.975281 853.744812 809.330322 834.005005 
804.395386 850.454834 809.330322 830.715088 
806.040344 850.454834 809.330322 834.005005 
802.750427 850.454834 810.975281 837.294983 
806.040344 850.454834 809.330322 837.294983 
801.105408 848.809875 809.330322 834.005005 
801.105408 848.809875 810.975281 829.070068 
804.395386 848.809875 809.330322 834.005005 
802.750427 847.164856 807.685364 832.360046 
814.265259 853.744812 806.040344 835.650024 
812.620300 853.744812 809.330322 838.940002 
807.685364 853.744812 809.330322 838.940002 
810.975281 853.744812 807.685364 832.360046 
810.975281 855.389771 809.330322 837.294983 
815.910278 855.389771 809.330322 835.650024 
815.910278 857.034729 806.040344 837.294983 
814.265259 855.389771 809.330322 838.940002 
814.265259 853.744812 807.685364 834.005005 
817.555237 855.389771 806.040344 840.584961 
812.620300 853.744812 807.685364 838.940002 
812.620300 855.389771 806.040344 827.425110 
815.910278 855.389771 804.395386 825.780151 
810.975281 857.034729 807.685364 825.780151 
814.265259 857.034729 807.685364 834.005005 
815.910278 857.034729 806.040344 834.005005 
814.265259 858.679749 804.395386 829.070068 
810.975281 857.034729 804.395386 822.490173 
812.620300 857.034729 806.040344 829.070068 
812.620300 855.389771 807.685364 832.360046 
809.330322 855.389771 806.040344 827.425110 
812.620300 855.389771 807.685364 825.780151 
810.975281 857.034729 809.330322 835.650024 
812.620300 855.389771 807.685364 829.070068 
815.910278 858.679749 809.330322 830.715088 
812.620300 860.324707 809.330322 824.135132 
814.265259 857.034729 809.330322 824.135132 
819.200195 858.679749 812.620300 834.005005 
817.555237 860.324707 810.975281 834.005005 
815.910278 858.679749 809.330322 830.715088 
814.265259 857.034729 809.330322 830.715088 
814.265259 857.034729 809.330322 830.715088 
810.975281 857.034729 810.975281 830.715088 
810.975281 857.034729 812.620300 830.715088 
809.330322 855.389771 814.265259 830.715088 
807.685364 852.099792 815.910278 838.940002 
801.105408 853.744812 815.910278 835.650024 
801.105408 853.744812 814.265259 840.584961 
806.040344 853.744812 812.620300 840.584961 
810.975281 853.744812 815.910278 840.584961 
810.975281 852.099792 815.910278 842.229919 
809.330322 853.744812 812.620300 834.005005 
806.040344 853.744812 814.265259 838.940002 
812.620300 853.744812 814.265259 843.874939 
815.910278 855.389771 817.555237 838.940002 
810.975281 852.099792 815.910278 838.940002 
812.620300 852.099792 814.265259 837.294983 
812.620300 853.744812 814.265259 834.005005 
806.040344 852.099792 815.910278 840.584961 
806.040344 852.099792 817.555237 837.294983 
809.330322 852.099792 814.265259 835.650024 
807.685364 852.099792 814.265259 835.650024 
809.330322 853.744812 815.910278 830.715088 
810.975281 852.099792 815.910278 832.360046 
807.685364 850.454834 815.910278 835.650024 
804.395386 850.454834 812.620300 837.294983 
802.750427 850.454834 810.975281 837.294983 
804.395386 852.099792 812.620300 830.715088 
806.040344 852.099792 815.910278 835.650024 
809.330322 850.454834 815.910278 835.650024 
806.040344 848.809875 814.265259 830.715088 
804.395386 848.809875 815.910278 832.360046 
809.330322 850.454834 814.265259 837.294983 
809.330322 850.454834 814.265259 832.360046 
810.975281 848.809875 810.975281 830.715088 
809.330322 850.454834 810.975281 834.005005 
807.685364 850.454834 810.975281 837.294983 
809.330322 852.099792 810.975281 840.584961 
812.620300 853.744812 810.975281 842.229919 
815.910278 852.099792 810.975281 838.940002 
814.265259 852.099792 812.620300 840.584961 
815.910278 850.454834 814.265259 850.454834 
815.910278 850.454834 814.265259 847.164856 
815.910278 850.454834 814.265259 847.164856 
810.975281 848.809875 814.265259 838.940002 
809.330322 850.454834 814.265259 847.164856 
815.910278 852.099792 812.620300 845.519897 
814.265259 853.744812 810.975281 838.940002 
814.265259 853.744812 810.975281 843.874939 
812.620300 852.099792 815.910278 845.519897 
812.620300 850.454834 815.910278 838.940002 
815.910278 850.454834 817.555237 842.229919 
814.265259 852.099792 817.555237 838.940002 
814.265259 852.099792 815.910278 838.940002 
812.620300 852.099792 817.555237 847.164856 
806.040344 852.099792 815.910278 842.229919 
809.330322 853.744812 815.910278 837.294983 
810.975281 853.744812 819.200195 837.294983 
814.265259 852.099792 817.555237 843.874939 
817.555237 850.454834 817.555237 845.519897 
815.910278 850.454834 815.910278 838.940002 
812.620300 852.099792 817.555237 843.874939 
810.975281 850.454834 819.200195 838.940002 
812.620300 852.099792 817.555237 838.940002 
809.330322 850.454834 817.555237 838.940002 
812.620300 850.454834 815.910278 838.940002 
807.685364 850.454834 812.620300 830.715088 
802.750427 848.809875 814.265259 829.070068 
799.460449 848.809875 819.200195 832.360046 
801.105408 850.454834 815.910278 830.715088 
806.040344 850.454834 815.910278 835.650024 
804.395386 848.809875 815.910278 832.360046 
806.040344 850.454834 814.265259 835.650024 
806.040344 853.744812 817.555237 830.715088 
807.685364 852.099792 815.910278 834.005005 
806.040344 850.454834 814.265259 832.360046 
809.330322 850.454834 814.265259 835.650024 
810.975281 850.454834 815.910278 843.874939 
812.620300 852.099792 817.555237 843.874939 
812.620300 852.099792 814.265259 835.650024 
815.910278 853.744812 815.910278 834.005005 
815.910278 853.744812 817.555237 838.940002 
817.555237 853.744812 817.555237 843.874939 
824.135132 857.034729 819.200195 840.584961 
814.265259 853.744812 814.265259 840.584961 
814.265259 853.744812 814.265259 837.294983 
810.975281 853.744812 815.910278 842.229919 
807.685364 853.744812 814.265259 835.650024 
812.620300 853.744812 812.620300 832.360046 
812.620300 853.744812 812.620300 830.715088 
806.040344 852.099792 812.620300 825.780151 
806.040344 852.099792 812.620300 832.360046 
806.040344 850.454834 814.265259 830.715088 
807.685364 853.744812 812.620300 827.425110 
810.975281 852.099792 814.265259 832.360046 
812.620300 853.744812 812.620300 834.005005 
814.265259 855.389771 812.620300 835.650024 
815.910278 853.744812 810.975281 838.940002 
809.330322 852.099792 812.620300 837.294983 
812.620300 850.454834 812.620300 835.650024 
822.490173 852.099792 809.330322 834.005005 
817.555237 852.099792 814.265259 834.005005 
819.200195 852.099792 814.265259 835.650024 
